# .PCD v0.7 - Point Cloud Data file format
VERSION 0.7
FIELDS x y z rgb
SIZE 4 4 4 4
TYPE F F F U
COUNT 1 1 1 1
WIDTH 1065
HEIGHT 1
VIEWPOINT 0 0 0 1 0 0 0
POINTS 1065
DATA ascii
-0.1718972 -0.037984759 0.67600012 4280431468
-0.1706095 -0.037984759 0.67600012 4281218125
-0.16932189 -0.037984759 0.67600012 4281611822
-0.2689724 -0.034145709 0.62900001 4281281332
-0.26777431 -0.034145709 0.62900001 4280160319
-0.26615241 -0.034091432 0.62800002 4279109689
-0.26453429 -0.034037139 0.62699997 4278716467
-0.26291999 -0.033982862 0.62599999 4278388534
-0.2613095 -0.033928569 0.625 4278389306
-0.26011911 -0.033928569 0.625 4278455356
-0.25685719 -0.033657141 0.62 4278454590
-0.25567621 -0.033657141 0.62 4278454598
-0.2540848 -0.03360286 0.61900002 4278454095
-0.2529057 -0.03360286 0.61900002 4278519625
-0.25172669 -0.03360286 0.61900002 4278454083
-0.2501429 -0.033548571 0.61799997 4278389310
-0.2489657 -0.033548571 0.61799997 4278454842
-0.2473876 -0.03349429 0.61699998 4278520377
-0.24740949 -0.033657141 0.62 4278585913
-0.24622861 -0.033657141 0.62 4278651454
-0.24465241 -0.03360286 0.61900002 4278520388
-0.2438667 -0.033657141 0.62 4278454851
-0.24268571 -0.033657141 0.62 4278389827
-0.2415048 -0.033657141 0.62 4278389830
-0.2403238 -0.033657141 0.62 4278390346
-0.23914289 -0.033657141 0.62 4278390860
-0.23872951 -0.033765711 0.62199998 4278390351
-0.2375448 -0.033765711 0.62199998 4278390347
-0.23673999 -0.03382 0.62300003 4278390599
-0.23555329 -0.03382 0.62300003 4278456391
-0.2343667 -0.03382 0.62300003 4278456647
-0.23392861 -0.033928569 0.625 4278521672
-0.2331105 -0.033982862 0.62599999 4278521929
-0.2319181 -0.033982862 0.62599999 4278588492
-0.2310943 -0.034037139 0.62699997 4278522192
-0.23026671 -0.034091432 0.62800002 4278456401
-0.2290705 -0.034091432 0.62800002 4278587731
-0.22823711 -0.034145709 0.62900001 4278653781
-0.227761 -0.03425429 0.63099998 4278522455
-0.2269181 -0.034308571 0.63200003 4278457687
-0.2260714 -0.03436286 0.63300002 4278457431
-0.2252209 -0.034417141 0.634 4278457429
-0.22436669 -0.03447143 0.63500011 4278457428
-0.2231572 -0.03447143 0.63500011 4278522964
-0.22229721 -0.034525711 0.63599998 4278654036
-0.2210857 -0.034525711 0.63599998 4278850644
-0.21987429 -0.034525711 0.63599998 4278719316
-0.2193505 -0.034634281 0.63800001 4278588755
-0.2201867 -0.034960002 0.64400011 4278588754
-0.21896 -0.034960002 0.64400011 4278588753
-0.21908569 -0.035177141 0.648 4278522449
-0.2185238 -0.035285719 0.64999998 4278522448
-0.21762 -0.03534 0.65100002 4278456400
-0.21638 -0.03534 0.65100002 4278456139
-0.21514 -0.03534 0.65100002 4278456135
-0.2135714 -0.035285719 0.64999998 4278456647
-0.21266 -0.03534 0.65100002 4278718792
-0.21142 -0.03534 0.65100002 4278980936
-0.1924772 -0.036208581 0.66700011 4281938477
-0.19120669 -0.036208581 0.66700011 4281872934
-0.1879572 -0.036317151 0.66900003 4280952118
-0.18668289 -0.036317151 0.66900003 4279766849
-0.18540861 -0.036317151 0.66900003 4279175245
-0.1844095 -0.036371429 0.67000002 4278585165
-0.1831333 -0.036371429 0.67000002 4278454605
-0.1818572 -0.036371429 0.67000002 4278390349
-0.18085051 -0.036425721 0.671 4278389837
-0.17984 -0.03648001 0.67200011 4278389838
-0.17909139 -0.036588579 0.67400002 4278390351
-0.1778076 -0.036588579 0.67400002 4278456664
-0.17678569 -0.036642861 0.67500001 4278456930
-0.17550001 -0.036642861 0.67500001 4278522985
-0.17447241 -0.036697149 0.67600012 4278918768
-0.1736971 -0.036805719 0.67799997 4279380086
-0.1724057 -0.036805719 0.67799997 4280102781
-0.1711143 -0.036805719 0.67799997 4280825186
-0.1698229 -0.036805719 0.67799997 4281349960
-0.2689724 -0.032947619 0.62900001 4281412401
-0.26777431 -0.032947619 0.62900001 4280423226
-0.26615241 -0.032895241 0.62800002 4279438392
-0.26453429 -0.03284286 0.62699997 4278913334
-0.26291999 -0.032790478 0.62599999 4278389048
-0.2617276 -0.032790478 0.62599999 4278454586
-0.26011911 -0.03273809 0.625 4278520123
-0.25768569 -0.032580949 0.62199998 4278454588
-0.25567621 -0.03247619 0.62 4278454591
-0.2540848 -0.032423809 0.61900002 4278389058
-0.2529057 -0.032423809 0.61900002 4278388800
-0.25172669 -0.032423809 0.61900002 4278388542
-0.25054759 -0.032423809 0.61900002 4278454844
-0.2489657 -0.032371432 0.61799997 4278454842
-0.24778859 -0.032371432 0.61799997 4278520374
-0.24740949 -0.03247619 0.62 4278520115
-0.24622861 -0.03247619 0.62 4278520124
-0.2450476 -0.03247619 0.62 4278520133
-0.2438667 -0.03247619 0.62 4278520642
-0.24268571 -0.03247619 0.62 4278455359
-0.2415048 -0.03247619 0.62 4278455361
-0.2403238 -0.03247619 0.62 4278455620
-0.2399143 -0.032580949 0.62199998 4278455873
-0.23872951 -0.032580949 0.62199998 4278455359
-0.23792671 -0.032633331 0.62300003 4278455363
-0.23673999 -0.032633331 0.62300003 4278456135
-0.23555329 -0.032633331 0.62300003 4278521672
-0.23474289 -0.032685708 0.62400001 4278456650
-0.23430289 -0.032790478 0.62599999 4278456650
-0.2331105 -0.032790478 0.62599999 4278653259
-0.2322886 -0.03284286 0.62699997 4278850126
-0.2314629 -0.032895241 0.62800002 4278719057
-0.2306333 -0.032947619 0.62900001 4278587986
-0.22943521 -0.032947619 0.62900001 4278719315
-0.2289629 -0.033052381 0.63099998 4278915925
-0.22812191 -0.033104759 0.63200003 4278653527
-0.2272771 -0.03315714 0.63300002 4278457687
-0.2264286 -0.033209521 0.634 4278457943
-0.22557621 -0.03326191 0.63500011 4278523479
-0.22436669 -0.03326191 0.63500011 4278523991
-0.2235086 -0.033314291 0.63599998 4278523222
-0.22229721 -0.033314291 0.63599998 4278719062
-0.2210857 -0.033314291 0.63599998 4278981206
-0.22056571 -0.03341905 0.63800001 4278784598
-0.2196943 -0.033471432 0.63900012 4278654294
-0.2205286 -0.033785719 0.64499998 4278720086
-0.2193 -0.033785719 0.64499998 4278785366
-0.21908569 -0.03394286 0.648 4278653525
-0.2185238 -0.034047619 0.64999998 4278587989
-0.21795429 -0.034152381 0.65200001 4278522708
-0.2167124 -0.034152381 0.65200001 4278456143
-0.21547049 -0.034152381 0.65200001 4278456139
-0.2139 -0.0341 0.65100002 4278456650
-0.21298669 -0.034152381 0.65200001 4278653258
-0.2117448 -0.034152381 0.65200001 4278850373
-0.1872409 -0.035147619 0.671 4281081915
-0.18568569 -0.035095241 0.67000002 4279894853
-0.1844095 -0.035095241 0.67000002 4278781254
-0.18368 -0.0352 0.67200011 4278585415
-0.1824 -0.0352 0.67200011 4278389066
-0.18111999 -0.0352 0.67200011 4278389325
-0.1803752 -0.035304759 0.67400002 4278455373
-0.1796229 -0.035409529 0.67600012 4278455374
-0.17807139 -0.03535714 0.67500001 4278455382
-0.1770476 -0.035409529 0.67600012 4278455645
-0.17576 -0.035409529 0.67600012 4278522723
-0.17447241 -0.035409529 0.67600012 4278786409
-0.1736971 -0.035514291 0.67799997 4279116913
-0.1724057 -0.035514291 0.67799997 4279774328
-0.1711143 -0.035514291 0.67799997 4280496483
-0.1698229 -0.035514291 0.67799997 4281153614
-0.26854479 -0.03169905 0.62800002 4282199343
-0.26777431 -0.03174952 0.62900001 4280555574
-0.26615241 -0.03169905 0.62800002 4278980152
-0.26495621 -0.03169905 0.62800002 4278717242
-0.26334 -0.031648569 0.62699997 4278454842
-0.2617276 -0.031598091 0.62599999 4278454842
-0.26053521 -0.031598091 0.62599999 4278454842
-0.2581 -0.031446669 0.62300003 4278389050
-0.25650099 -0.031396192 0.62199998 4278389047
-0.2544952 -0.03129524 0.62 4278389045
-0.2529057 -0.03124476 0.61900002 4278389303
-0.25213331 -0.03129524 0.62 4278389306
-0.25054759 -0.03124476 0.61900002 4278389306
-0.24936859 -0.03124476 0.61900002 4278520378
-0.2485905 -0.03129524 0.62 4278651444
-0.24740949 -0.03129524 0.62 4278520110
-0.24622861 -0.03129524 0.62 4278455354
-0.2450476 -0.03129524 0.62 4278455111
-0.2446533 -0.031396192 0.62199998 4278455617
-0.24268571 -0.03129524 0.62 4278455611
-0.2415048 -0.03129524 0.62 4278455868
-0.2410991 -0.031396192 0.62199998 4278455614
-0.2403 -0.031446669 0.62300003 4278456118
-0.2391133 -0.031446669 0.62300003 4278389551
-0.23792671 -0.031446669 0.62300003 4278389307
-0.23712 -0.031497139 0.62400001 4278390343
-0.2363095 -0.031547621 0.625 4278456138
-0.2354953 -0.031598091 0.62599999 4278456653
-0.2346772 -0.031648569 0.62699997 4278457421
-0.2334829 -0.031648569 0.62699997 4278588494
-0.2326591 -0.03169905 0.62800002 4278720080
-0.2318314 -0.03174952 0.62900001 4278654034
-0.2306333 -0.03174952 0.62900001 4278654035
-0.2301648 -0.03185048 0.63099998 4278719572
-0.2289629 -0.03185048 0.63099998 4278850902
-0.22812191 -0.03190095 0.63200003 4278654296
-0.2272771 -0.031951431 0.63300002 4278457688
-0.2264286 -0.032001909 0.634 4278523480
-0.22557621 -0.032052379 0.63500011 4278523993
-0.22436669 -0.032052379 0.63500011 4278523995
-0.2235086 -0.032102861 0.63599998 4278458457
-0.22299621 -0.032203808 0.63800001 4278589272
-0.221781 -0.032203808 0.63800001 4278720088
-0.2209114 -0.03225429 0.63900012 4278654296
-0.2200381 -0.03230476 0.63999999 4278588761
-0.2205286 -0.032557141 0.64499998 4278588763
-0.21964 -0.032607619 0.64600003 4278654298
-0.21908569 -0.03270857 0.648 4278588250
-0.2185238 -0.032809529 0.64999998 4278587737
-0.21795429 -0.032910481 0.65200001 4278587737
-0.2167124 -0.032910481 0.65200001 4278521684
-0.21547049 -0.032910481 0.65200001 4278456399
-0.2142286 -0.032910481 0.65200001 4278456909
-0.21298669 -0.032910481 0.65200001 4278588492
-0.2117448 -0.032910481 0.65200001 4278786370
-0.1872409 -0.03386952 0.671 4282201910
-0.1859629 -0.03386952 0.671 4280884029
-0.1846848 -0.03386952 0.671 4279501887
-0.18368 -0.033920001 0.67200011 4278978625
-0.1829429 -0.034020949 0.67400002 4278454599
-0.181659 -0.034020949 0.67400002 4278389069
-0.1803752 -0.034020949 0.67400002 4278390349
-0.1796229 -0.034121908 0.67600012 4278389838
-0.1783352 -0.034121908 0.67600012 4278389843
-0.1770476 -0.034121908 0.67600012 4278455385
-0.17576 -0.034121908 0.67600012 4278457182
-0.17447241 -0.034121908 0.67600012 4278720611
-0.1736971 -0.03422286 0.67799997 4278985323
-0.1724057 -0.03422286 0.67799997 4279510900
-0.1711143 -0.03422286 0.67799997 4280036452
-0.1698229 -0.03422286 0.67799997 4280759892
-0.26854479 -0.03050286 0.62800002 4282985522
-0.26734859 -0.03050286 0.62800002 4280753204
-0.26615241 -0.03050286 0.62800002 4278586935
-0.26495621 -0.03050286 0.62800002 4278586425
-0.26334 -0.030454289 0.62699997 4278586167
-0.2617276 -0.030405721 0.62599999 4278455861
-0.26053521 -0.030405721 0.62599999 4278389562
-0.2589286 -0.030357139 0.625 4278389310
-0.2569133 -0.03026 0.62300003 4278389308
-0.2553162 -0.03021143 0.62199998 4278389817
-0.25413141 -0.03021143 0.62199998 4278389819
-0.2529467 -0.03021143 0.62199998 4278389820
-0.25176191 -0.03021143 0.62199998 4278389308
-0.2497714 -0.030114289 0.62 4278585916
-0.24939241 -0.03021143 0.62199998 4278847801
-0.2482076 -0.03021143 0.62199998 4278585654
-0.2470229 -0.03021143 0.62199998 4278389310
-0.24583811 -0.03021143 0.62199998 4278389573
-0.2446533 -0.03021143 0.62199998 4278455362
-0.2434686 -0.03021143 0.62199998 4278455616
-0.24228381 -0.03021143 0.62199998 4278455363
-0.2410991 -0.03021143 0.62199998 4278455366
-0.2403 -0.03026 0.62300003 4278455104
-0.2394971 -0.030308571 0.62400001 4278389050
-0.23830859 -0.030308571 0.62400001 4278324288
-0.2375 -0.030357139 0.625 4278324807
-0.2363095 -0.030357139 0.625 4278390602
-0.2354953 -0.030405721 0.62599999 4278391118
-0.2346772 -0.030454289 0.62699997 4278457167
-0.2334829 -0.030454289 0.62699997 4278523473
-0.2330295 -0.03055143 0.62900001 4278654546
-0.2318314 -0.03055143 0.62900001 4278654291
-0.23136669 -0.030648571 0.63099998 4278719828
-0.2301648 -0.030648571 0.63099998 4278719830
-0.2293257 -0.030697141 0.63200003 4278785367
-0.22812191 -0.030697141 0.63200003 4278654297
-0.2272771 -0.030745709 0.63300002 4278523482
-0.2264286 -0.030794291 0.634 4278523739
-0.22557621 -0.030842859 0.63500011 4278589279
-0.22472 -0.03089143 0.63599998 4278523491
-0.2235086 -0.03089143 0.63599998 4278458207
-0.22299621 -0.03098857 0.63800001 4278459483
-0.221781 -0.03098857 0.63800001 4278457947
-0.2209114 -0.03103715 0.63900012 4278523483
-0.2200381 -0.03108572 0.63999999 4278589020
-0.2188191 -0.03108572 0.63999999 4278523998
-0.21998 -0.031425711 0.64700001 4278523229
-0.21908569 -0.031474281 0.648 4278588764
-0.2185238 -0.031571429 0.64999998 4278653786
-0.21795429 -0.03166857 0.65200001 4278653273
-0.2167124 -0.03166857 0.65200001 4278653270
-0.21547049 -0.03166857 0.65200001 4278522706
-0.2142286 -0.03166857 0.65200001 4278457168
-0.21298669 -0.03166857 0.65200001 4278589007
-0.1872409 -0.032591429 0.671 4283381045
-0.1859629 -0.032591429 0.671 4281807156
-0.1857857 -0.03278571 0.67500001 4280292413
-0.18422671 -0.03273714 0.67400002 4279372102
-0.18321431 -0.03278571 0.67500001 4278520136
-0.1819286 -0.03278571 0.67500001 4278389067
-0.1806429 -0.03278571 0.67500001 4278324043
-0.1796229 -0.032834291 0.67600012 4278324299
-0.1783352 -0.032834291 0.67600012 4278389840
-0.1770476 -0.032834291 0.67600012 4278389333
-0.17628001 -0.032931428 0.67799997 4278456410
-0.1749886 -0.032931428 0.67799997 4278654559
-0.1736971 -0.032931428 0.67799997 4278852710
-0.1724057 -0.032931428 0.67799997 4279181934
-0.1711143 -0.032931428 0.67799997 4279576932
-0.1698229 -0.032931428 0.67799997 4280300890
-0.26854479 -0.029306671 0.62800002 4282723382
-0.26777431 -0.02935333 0.62900001 4280622643
-0.26615241 -0.029306671 0.62800002 4278587190
-0.26495621 -0.029306671 0.62800002 4278586425
-0.26334 -0.02926 0.62699997 4278520629
-0.2621457 -0.02926 0.62699997 4278455089
-0.26095149 -0.02926 0.62699997 4278389818
-0.25934291 -0.029213339 0.62599999 4278389315
-0.25773811 -0.029166671 0.625 4278389568
-0.2561371 -0.02912 0.62400001 4278389054
-0.25494859 -0.02912 0.62400001 4278389054
-0.2533533 -0.02907333 0.62300003 4278389567
-0.25216669 -0.02907333 0.62300003 4278389567
-0.25057721 -0.02902667 0.62199998 4278454847
-0.24939241 -0.02902667 0.62199998 4278585663
-0.2482076 -0.02902667 0.62199998 4278454591
-0.2470229 -0.02902667 0.62199998 4278389313
-0.2462333 -0.02907333 0.62300003 4278389572
-0.24504671 -0.02907333 0.62300003 4278389572
-0.2434686 -0.02902667 0.62199998 4278389573
-0.2430629 -0.02912 0.62400001 4278389833
-0.2422619 -0.029166671 0.625 4278389582
-0.2410714 -0.029166671 0.625 4278454857
-0.2398809 -0.029166671 0.625 4278455109
-0.2386905 -0.029166671 0.625 4278521926
-0.2375 -0.029166671 0.625 4278521415
-0.2366876 -0.029213339 0.62599999 4278456651
-0.2354953 -0.029213339 0.62599999 4278456655
-0.2346772 -0.02926 0.62699997 4278456913
-0.2338552 -0.029306671 0.62800002 4278588244
-0.2330295 -0.02935333 0.62900001 4278720084
-0.2318314 -0.02935333 0.62900001 4278654549
-0.23136669 -0.029446671 0.63099998 4278589526
-0.2301648 -0.029446671 0.63099998 4278654296
-0.2293257 -0.029493339 0.63200003 4278719833
-0.2284829 -0.02954 0.63300002 4278654811
-0.2276362 -0.029586671 0.634 4278589788
-0.2267857 -0.02963333 0.63500011 4278589790
-0.22557621 -0.02963333 0.63500011 4278655589
-0.22472 -0.029680001 0.63599998 4278589292
-0.2235086 -0.029680001 0.63599998 4278589285
-0.22299621 -0.02977333 0.63800001 4278589279
-0.2221286 -0.029820001 0.63900012 4278588766
-0.22125719 -0.029866669 0.63999999 4278589022
-0.2203819 -0.02991334 0.64099997 4278654559
-0.22087049 -0.03014667 0.64600003 4278654561
-0.21998 -0.030193331 0.64700001 4278720095
-0.2187476 -0.030193331 0.64700001 4278588766
-0.2178514 -0.030239999 0.648 4278523228
-0.21762 -0.030379999 0.65100002 4278588506
-0.2167124 -0.03042667 0.65200001 4278653784
-0.21547049 -0.03042667 0.65200001 4278522710
-0.2142286 -0.03042667 0.65200001 4278391636
-0.21298669 -0.03042667 0.65200001 4278523218
-0.1857857 -0.031500001 0.67500001 4280556347
-0.18449999 -0.031500001 0.67500001 4279635532
-0.1834857 -0.031546671 0.67600012 4278717002
-0.18219811 -0.031546671 0.67600012 4278520393
-0.1809105 -0.031546671 0.67600012 4278389321
-0.18015429 -0.031640001 0.67799997 4278389833
-0.1788629 -0.031640001 0.67799997 4278390349
-0.1775714 -0.031640001 0.67799997 4278390353
-0.17628001 -0.031640001 0.67799997 4278390614
-0.1749886 -0.031640001 0.67799997 4278522715
-0.1736971 -0.031640001 0.67799997 4278654817
-0.17265999 -0.031686671 0.67900002 4278984552
-0.1711143 -0.031640001 0.67799997 4279379812
-0.1698229 -0.031640001 0.67799997 4280036193
-0.26854479 -0.02811048 0.62800002 4282460208
-0.26777431 -0.028155239 0.62900001 4280558127
-0.26615241 -0.02811048 0.62800002 4278653749
-0.26537809 -0.028155239 0.62900001 4278586427
-0.26376 -0.02811048 0.62800002 4278520376
-0.26256379 -0.02811048 0.62800002 4278454837
-0.26095149 -0.028065709 0.62699997 4278389049
-0.25975719 -0.028065709 0.62699997 4278388798
-0.25815049 -0.028020959 0.62599999 4278455102
-0.2565476 -0.027976191 0.625 4278388542
-0.25535709 -0.027976191 0.625 4278389053
-0.25376001 -0.027931429 0.62400001 4278389564
-0.25216669 -0.02788667 0.62300003 4278389565
-0.25097999 -0.02788667 0.62300003 4278389567
-0.2497934 -0.02788667 0.62300003 4278389567
-0.2486067 -0.02788667 0.62300003 4278389567
-0.24742 -0.02788667 0.62300003 4278389309
-0.2462333 -0.02788667 0.62300003 4278389563
-0.24544001 -0.027931429 0.62400001 4278389568
-0.2442514 -0.027931429 0.62400001 4278389316
-0.2430629 -0.027931429 0.62400001 4278389319
-0.2422619 -0.027976191 0.625 4278389577
-0.2414571 -0.028020959 0.62599999 4278455366
-0.2402648 -0.028020959 0.62599999 4278586691
-0.2386905 -0.027976191 0.625 4278783302
-0.23788001 -0.028020959 0.62599999 4278652489
-0.2366876 -0.028020959 0.62599999 4278587724
-0.2358714 -0.028065709 0.62699997 4278522191
-0.23505139 -0.02811048 0.62800002 4278522194
-0.2338552 -0.02811048 0.62800002 4278653269
-0.2330295 -0.028155239 0.62900001 4278785366
-0.23256861 -0.02824476 0.63099998 4278654552
-0.23136669 -0.02824476 0.63099998 4278523737
-0.2305295 -0.028289519 0.63200003 4278588762
-0.2293257 -0.028289519 0.63200003 4278654811
-0.2284829 -0.02833429 0.63300002 4278655580
-0.2276362 -0.028379049 0.634 4278720861
-0.2264286 -0.028379049 0.634 4278720862
-0.22557621 -0.02842381 0.63500011 4278720610
-0.22436669 -0.02842381 0.63500011 4278720615
-0.2235086 -0.02846857 0.63599998 4278720611
-0.22299621 -0.0285581 0.63800001 4278720607
-0.221781 -0.0285581 0.63800001 4278720609
-0.22125719 -0.02864762 0.63999999 4278720867
-0.2207257 -0.028737141 0.64200002 4278720354
-0.2205286 -0.02887143 0.64499998 4278850914
-0.2193 -0.02887143 0.64499998 4278982241
-0.2187476 -0.028960951 0.64700001 4278654560
-0.2178514 -0.02900571 0.648 4278392927
-0.21762 -0.029139999 0.65100002 4278524766
-0.21638 -0.029139999 0.65100002 4278654812
-0.215801 -0.029229529 0.65300012 4278523482
-0.2145572 -0.029229529 0.65300012 4278392152
-0.2133134 -0.029229529 0.65300012 4278523222
-0.18559331 -0.03039333 0.67900002 4279898442
-0.18430001 -0.03039333 0.67900002 4278979660
-0.1830067 -0.03039333 0.67900002 4278717006
-0.1817133 -0.03039333 0.67900002 4278454860
-0.18042 -0.03039333 0.67900002 4278389833
-0.17912669 -0.03039333 0.67900002 4278390349
-0.1778333 -0.03039333 0.67900002 4278390353
-0.17654 -0.03039333 0.67900002 4278390356
-0.1752467 -0.03039333 0.67900002 4278456408
-0.17395329 -0.03039333 0.67900002 4278523230
-0.17265999 -0.03039333 0.67900002 4278852708
-0.1711143 -0.030348569 0.67799997 4279181670
-0.1698229 -0.030348569 0.67799997 4279773544
-0.2689724 -0.026957139 0.62900001 4281869866
-0.26777431 -0.026957139 0.62900001 4280492075
-0.2665762 -0.026957139 0.62900001 4279178548
-0.26537809 -0.026957139 0.62900001 4278848830
-0.26376 -0.026914289 0.62800002 4278585916
-0.26256379 -0.026914289 0.62800002 4278454842
-0.26136759 -0.026914289 0.62800002 4278389049
-0.26017141 -0.026914289 0.62800002 4278389049
-0.25856289 -0.02687143 0.62699997 4278455099
-0.25736859 -0.02687143 0.62699997 4278388542
-0.25535709 -0.026785711 0.625 4278389052
-0.25416669 -0.026785711 0.625 4278389306
-0.2525714 -0.026742861 0.62400001 4278455356
-0.25097999 -0.026699999 0.62300003 4278389567
-0.2497934 -0.026699999 0.62300003 4278389567
-0.2486067 -0.026699999 0.62300003 4278389567
-0.24742 -0.026699999 0.62300003 4278389305
-0.2466286 -0.026742861 0.62400001 4278389555
-0.24544001 -0.026742861 0.62400001 4278455099
-0.2442514 -0.026742861 0.62400001 4278389316
-0.2430629 -0.026742861 0.62400001 4278389316
-0.2422619 -0.026785711 0.625 4278389573
-0.2414571 -0.02682857 0.62599999 4278455875
-0.2402648 -0.02682857 0.62599999 4278521153
-0.2390724 -0.02682857 0.62599999 4278651974
-0.23788001 -0.02682857 0.62599999 4278521420
-0.2366876 -0.02682857 0.62599999 4278456653
-0.2358714 -0.02687143 0.62699997 4278522191
-0.2346772 -0.02687143 0.62699997 4278587218
-0.2342276 -0.026957139 0.62900001 4278587734
-0.2330295 -0.026957139 0.62900001 4278654296
-0.2318314 -0.026957139 0.62900001 4278589275
-0.23136669 -0.02704286 0.63099998 4278589788
-0.2301648 -0.02704286 0.63099998 4278655325
-0.2293257 -0.02708571 0.63200003 4278721373
-0.2284829 -0.02712857 0.63300002 4278721117
-0.2276362 -0.027171429 0.634 4278721118
-0.2264286 -0.027171429 0.634 4278720863
-0.22557621 -0.027214291 0.63500011 4278785888
-0.22436669 -0.027214291 0.63500011 4278721122
-0.2235086 -0.027257141 0.63599998 4278656097
-0.22229721 -0.027257141 0.63599998 4278655584
-0.221781 -0.02734286 0.63800001 4278655588
-0.2209114 -0.027385719 0.63900012 4278655336
-0.2207257 -0.02751429 0.64200002 4278655333
-0.2205286 -0.027642859 0.64499998 4278720867
-0.21998 -0.027728571 0.64700001 4278786659
-0.21908569 -0.02777143 0.648 4278655587
-0.2178514 -0.02777143 0.648 4278524514
-0.21762 -0.027899999 0.65100002 4278524514
-0.2170448 -0.02798572 0.65300012 4278590048
-0.215801 -0.02798572 0.65300012 4278523742
-0.2152143 -0.02807143 0.65499997 4278457692
-0.2139667 -0.02807143 0.65499997 4278523227
-0.1858667 -0.02914286 0.68000001 4280161865
-0.1845714 -0.02914286 0.68000001 4279373390
-0.18327621 -0.02914286 0.68000001 4278913876
-0.1817133 -0.029100001 0.67900002 4278389327
-0.18042 -0.029100001 0.67900002 4278389834
-0.17912669 -0.029100001 0.67900002 4278324813
-0.1778333 -0.029100001 0.67900002 4278324817
-0.17654 -0.029100001 0.67900002 4278390355
-0.1752467 -0.029100001 0.67900002 4278456405
-0.17395329 -0.029100001 0.67900002 4278522714
-0.17265999 -0.029100001 0.67900002 4278720352
-0.17136671 -0.029100001 0.67900002 4278917991
-0.1700733 -0.029100001 0.67900002 4279509615
-0.2698276 -0.025840949 0.63099998 4281280300
-0.26862571 -0.025840949 0.63099998 4280492077
-0.26742381 -0.025840949 0.63099998 4279768884
-0.26622191 -0.025840949 0.63099998 4279177020
-0.26418 -0.025759051 0.62900001 4278651449
-0.26298189 -0.025759051 0.62900001 4278520373
-0.26178381 -0.025759051 0.62900001 4278454834
-0.26017141 -0.0257181 0.62800002 4278454832
-0.25897521 -0.0257181 0.62800002 4278454580
-0.25736859 -0.025677141 0.62699997 4278454072
-0.25535709 -0.02559524 0.625 4278454585
-0.2545734 -0.025636191 0.62599999 4278454585
-0.25297621 -0.02559524 0.625 4278520637
-0.2517857 -0.02559524 0.625 4278455105
-0.25019431 -0.02555429 0.62400001 4278389568
-0.2494048 -0.02559524 0.625 4278389823
-0.2478171 -0.02555429 0.62400001 4278389821
-0.24702381 -0.02559524 0.625 4278455356
-0.24583329 -0.02559524 0.625 4278520892
-0.2446429 -0.02559524 0.625 4278455357
-0.2438419 -0.025636191 0.62599999 4278389824
-0.2426495 -0.025636191 0.62599999 4278389827
-0.2418429 -0.025677141 0.62699997 4278455619
-0.2406486 -0.025677141 0.62699997 4278455875
-0.2390724 -0.025636191 0.62599999 4278521414
-0.23826 -0.025677141 0.62699997 4278455881
-0.2370657 -0.025677141 0.62699997 4278390860
-0.2358714 -0.025677141 0.62699997 4278522191
-0.2354257 -0.025759051 0.62900001 4278653265
-0.2342276 -0.025759051 0.62900001 4278587732
-0.2330295 -0.025759051 0.62900001 4278588759
-0.23256861 -0.025840949 0.63099998 4278590042
-0.23136669 -0.025840949 0.63099998 4278655324
-0.2305295 -0.025881911 0.63200003 4278721374
-0.2293257 -0.025881911 0.63200003 4278852446
-0.2284829 -0.025922859 0.63300002 4278786910
-0.2276362 -0.025963809 0.634 4278786655
-0.2264286 -0.025963809 0.634 4278786656
-0.22557621 -0.02600476 0.63500011 4278852449
-0.22436669 -0.02600476 0.63500011 4278721890
-0.2235086 -0.026045719 0.63599998 4278590818
-0.22229721 -0.026045719 0.63599998 4278590817
-0.2210857 -0.026045719 0.63599998 4278590311
-0.2209114 -0.02616857 0.63900012 4278590061
-0.2203819 -0.02625048 0.64099997 4278655593
-0.2205286 -0.02641429 0.64499998 4278656358
-0.21998 -0.026496191 0.64700001 4278656358
-0.2187476 -0.026496191 0.64700001 4278656358
-0.2175152 -0.026496191 0.64700001 4278721380
-0.21762 -0.026660001 0.65100002 4278590307
-0.2167124 -0.026700949 0.65200001 4278524514
-0.215801 -0.026741911 0.65300012 4278524513
-0.2145572 -0.026741911 0.65300012 4278523743
-0.2133134 -0.026741911 0.65300012 4278589022
-0.1864133 -0.02792953 0.68199998 4280490557
-0.18511429 -0.02792953 0.68199998 4279833159
-0.1838152 -0.02792953 0.68199998 4279110992
-0.181981 -0.02784762 0.68000001 4278389835
-0.1806857 -0.02784762 0.68000001 4278324806
-0.1793905 -0.02784762 0.68000001 4278324811
-0.1778333 -0.027806669 0.67900002 4278324816
-0.17654 -0.027806669 0.67900002 4278390609
-0.1752467 -0.027806669 0.67900002 4278456402
-0.17395329 -0.027806669 0.67900002 4278522456
-0.17265999 -0.027806669 0.67900002 4278588766
-0.17136671 -0.027806669 0.67900002 4278655076
-0.1700733 -0.027806669 0.67900002 4279245931
-0.16878 -0.027806669 0.67900002 4279904614
-0.27025521 -0.0246781 0.63200003 4281280814
-0.2690514 -0.0246781 0.63200003 4280688943
-0.2678476 -0.0246781 0.63200003 4280031541
-0.26664379 -0.0246781 0.63200003 4279308347
-0.26418 -0.024560951 0.62900001 4278651446
-0.26298189 -0.024560951 0.62900001 4278520369
-0.26178381 -0.024560951 0.62900001 4278389548
-0.26017141 -0.02452191 0.62800002 4278389287
-0.25897521 -0.02452191 0.62800002 4278389037
-0.257779 -0.02452191 0.62800002 4278389043
-0.25576571 -0.024443811 0.62599999 4278389046
-0.2545734 -0.024443811 0.62599999 4278389049
-0.25338101 -0.024443811 0.62599999 4278455102
-0.2517857 -0.02440476 0.625 4278389572
-0.25059521 -0.02440476 0.625 4278389313
-0.2494048 -0.02440476 0.625 4278389823
-0.2482143 -0.02440476 0.625 4278389570
-0.24702381 -0.02440476 0.625 4278389829
-0.2462267 -0.024443811 0.62599999 4278455358
-0.24503431 -0.024443811 0.62599999 4278389815
-0.2438419 -0.024443811 0.62599999 4278324796
-0.2426495 -0.024443811 0.62599999 4278324545
-0.2418429 -0.024482859 0.62699997 4278390083
-0.2406486 -0.024482859 0.62699997 4278390341
-0.2394543 -0.024482859 0.62699997 4278390854
-0.23826 -0.024482859 0.62699997 4278390599
-0.2370657 -0.024482859 0.62699997 4278325323
-0.2362476 -0.02452191 0.62800002 4278390607
-0.2354257 -0.024560951 0.62900001 4278521425
-0.2342276 -0.024560951 0.62900001 4278521939
-0.2330295 -0.024560951 0.62900001 4278588758
-0.23256861 -0.02463905 0.63099998 4278720089
-0.23136669 -0.02463905 0.63099998 4278851420
-0.231259 -0.024756189 0.634 4278852448
-0.2296886 -0.024717139 0.63300002 4278787936
-0.22884379 -0.024756189 0.634 4278786912
-0.2276362 -0.024756189 0.634 4278786657
-0.2264286 -0.024756189 0.634 4278786658
-0.22557621 -0.02479524 0.63500011 4278852962
-0.22436669 -0.02479524 0.63500011 4278721891
-0.2235086 -0.02483429 0.63599998 4278590819
-0.22229721 -0.02483429 0.63599998 4278590819
-0.221781 -0.02491238 0.63800001 4278656363
-0.2209114 -0.02495143 0.63900012 4278655859
-0.2203819 -0.025029531 0.64099997 4278655598
-0.2201867 -0.025146671 0.64400011 4278655849
-0.21998 -0.025263811 0.64700001 4278656105
-0.21908569 -0.025302861 0.648 4278655849
-0.2178514 -0.025302861 0.648 4278721383
-0.21762 -0.025420001 0.65100002 4278655845
-0.2167124 -0.025459049 0.65200001 4278655845
-0.215801 -0.0254981 0.65300012 4278590053
-0.2145572 -0.0254981 0.65300012 4278524259
-0.21592671 -0.02581048 0.66100001 4278589537
-0.2149924 -0.025849519 0.66200012 4278655072
-0.2134086 -0.02581048 0.66100001 4278720863
-0.2121495 -0.02581048 0.66100001 4278852188
-0.1879876 -0.026669521 0.68300003 4281478706
-0.18668669 -0.026669521 0.68300003 4280886066
-0.1853857 -0.026669521 0.68300003 4280293183
-0.1840848 -0.026669521 0.68300003 4279438413
-0.1825162 -0.02663048 0.68199998 4278586184
-0.1806857 -0.026552379 0.68000001 4278390083
-0.1793905 -0.026552379 0.68000001 4278259529
-0.1778333 -0.026513331 0.67900002 4278325071
-0.17654 -0.026513331 0.67900002 4278390863
-0.1752467 -0.026513331 0.67900002 4278456656
-0.17395329 -0.026513331 0.67900002 4278522454
-0.17265999 -0.026513331 0.67900002 4278522717
-0.17136671 -0.026513331 0.67900002 4278523746
-0.1700733 -0.026513331 0.67900002 4278983527
-0.16878 -0.026513331 0.67900002 4279510882
-0.27025521 -0.023474289 0.63200003 4281346605
-0.2690514 -0.023474289 0.63200003 4280820776
-0.26827139 -0.02351143 0.63300002 4280359728
-0.26664379 -0.023474289 0.63200003 4279505208
-0.26502001 -0.023437141 0.63099998 4278651446
-0.26381809 -0.023437141 0.63099998 4278520885
-0.26178381 -0.02336286 0.62900001 4278389553
-0.2605857 -0.02336286 0.62900001 4278389550
-0.25938761 -0.02336286 0.62900001 4278389297
-0.257779 -0.023325721 0.62800002 4278389300
-0.2561743 -0.02328857 0.62699997 4278389301
-0.25498 -0.02328857 0.62699997 4278389303
-0.2537857 -0.02328857 0.62699997 4278389562
-0.25218859 -0.023251429 0.62599999 4278390077
-0.2509962 -0.023251429 0.62599999 4278455355
-0.2498038 -0.023251429 0.62599999 4278389818
-0.24861149 -0.023251429 0.62599999 4278389819
-0.2474191 -0.023251429 0.62599999 4278389820
-0.2462267 -0.023251429 0.62599999 4278389818
-0.24503431 -0.023251429 0.62599999 4278324536
-0.2438419 -0.023251429 0.62599999 4278324540
-0.2430371 -0.02328857 0.62699997 4278325056
-0.2418429 -0.02328857 0.62699997 4278324546
-0.2406486 -0.02328857 0.62699997 4278324805
-0.2394543 -0.02328857 0.62699997 4278324805
-0.23826 -0.02328857 0.62699997 4278324806
-0.2370657 -0.02328857 0.62699997 4278325320
-0.2358714 -0.02328857 0.62699997 4278324554
-0.23505139 -0.023325721 0.62800002 4278390093
-0.2338552 -0.023325721 0.62800002 4278455888
-0.2330295 -0.02336286 0.62900001 4278587731
-0.2318314 -0.02336286 0.62900001 4278850135
-0.23136669 -0.023437141 0.63099998 4279113562
-0.231259 -0.02354857 0.634 4278918238
-0.2300514 -0.02354857 0.634 4278786912
-0.22884379 -0.02354857 0.634 4278786913
-0.2276362 -0.02354857 0.634 4278852192
-0.2264286 -0.02354857 0.634 4278852190
-0.22557621 -0.023585711 0.63500011 4278852450
-0.22472 -0.023622859 0.63599998 4278721894
-0.2235086 -0.023622859 0.63599998 4278590818
-0.22299621 -0.02369714 0.63800001 4278656351
-0.221781 -0.02369714 0.63800001 4278721894
-0.22125719 -0.023771429 0.63999999 4278721901
-0.2203819 -0.023808571 0.64099997 4278721131
-0.2201867 -0.02392 0.64400011 4278655849
-0.21964 -0.023994289 0.64600003 4278655592
-0.21908569 -0.02406857 0.648 4278655591
-0.2178514 -0.02406857 0.648 4278721382
-0.21762 -0.024180001 0.65100002 4278787429
-0.2167124 -0.02421714 0.65200001 4278852198
-0.21547049 -0.02421714 0.65200001 4278655590
-0.2145572 -0.02425429 0.65300012 4278524262
-0.21592671 -0.024551431 0.66100001 4278590054
-0.2149924 -0.02458857 0.66200012 4278721380
-0.21373139 -0.02458857 0.66200012 4278722146
-0.2124705 -0.02458857 0.66200012 4278787167
-0.21120951 -0.02458857 0.66200012 4278786908
-0.18826289 -0.025405711 0.68400002 4281806124
-0.18696 -0.025405711 0.68400002 4281281830
-0.1856571 -0.025405711 0.68400002 4280820022
-0.1840848 -0.025368569 0.68300003 4279766086
-0.1827838 -0.025368569 0.68300003 4278783048
-0.1812171 -0.02533143 0.68199998 4278520906
-0.1793905 -0.02525714 0.68000001 4278259278
-0.17809521 -0.02525714 0.68000001 4278325330
-0.1768 -0.02525714 0.68000001 4278390866
-0.1755048 -0.02525714 0.68000001 4278457426
-0.17395329 -0.025219999 0.67900002 4278587734
-0.17265999 -0.025219999 0.67900002 4278522202
-0.17136671 -0.025219999 0.67900002 4278457695
-0.1700733 -0.025219999 0.67900002 4278786404
-0.16878 -0.025219999 0.67900002 4279116133
-0.27025521 -0.02227048 0.63200003 4281609516
-0.27032861 -0.022376191 0.63500011 4281083426
-0.26869521 -0.02234095 0.634 4280622635
-0.26748759 -0.02234095 0.634 4279701301
-0.26502001 -0.022235241 0.63099998 4278782263
-0.26381809 -0.022235241 0.63099998 4278585914
-0.26303241 -0.02227048 0.63200003 4278389559
-0.26141429 -0.022235241 0.63099998 4278323765
-0.25938761 -0.02216476 0.62900001 4278323765
-0.257779 -0.022129521 0.62800002 4278323765
-0.2561743 -0.022094291 0.62699997 4278324277
-0.25498 -0.022094291 0.62699997 4278323765
-0.2537857 -0.022094291 0.62699997 4278389557
-0.2525914 -0.022094291 0.62699997 4278389814
-0.2509962 -0.022059049 0.62599999 4278390326
-0.25020289 -0.022094291 0.62699997 4278389814
-0.24861149 -0.022059049 0.62599999 4278389044
-0.2474191 -0.022059049 0.62599999 4278389811
-0.24662 -0.022094291 0.62699997 4278390326
-0.2454257 -0.022094291 0.62699997 4278324282
-0.2442314 -0.022094291 0.62699997 4278258493
-0.2434248 -0.022129521 0.62800002 4278324288
-0.2422286 -0.022129521 0.62800002 4278389826
-0.24103241 -0.022129521 0.62800002 4278324805
-0.2398362 -0.022129521 0.62800002 4278324805
-0.23864 -0.022129521 0.62800002 4278325061
-0.2374438 -0.022129521 0.62800002 4278325317
-0.2362476 -0.022129521 0.62800002 4278324549
-0.2354257 -0.02216476 0.62900001 4278389833
-0.2342276 -0.02216476 0.62900001 4278390350
-0.2330295 -0.02216476 0.62900001 4278456401
-0.23256861 -0.022235241 0.63099998 4278654037
-0.23173331 -0.02227048 0.63200003 4278851929
-0.231259 -0.02234095 0.634 4278786909
-0.2296886 -0.02230572 0.63300002 4278721376
-0.22884379 -0.02234095 0.634 4278786915
-0.2276362 -0.02234095 0.634 4278852191
-0.2264286 -0.02234095 0.634 4278917723
-0.22557621 -0.022376191 0.63500011 4278983266
-0.22436669 -0.022376191 0.63500011 4278852457
-0.2235086 -0.02241143 0.63599998 4278721634
-0.22299621 -0.022481911 0.63800001 4278656347
-0.2221286 -0.022517139 0.63900012 4278590817
-0.22125719 -0.02255238 0.63999999 4278590055
-0.2203819 -0.02258762 0.64099997 4278588520
-0.2201867 -0.02269334 0.64400011 4278589802
-0.2193 -0.02272857 0.64499998 4278654823
-0.21840949 -0.022763809 0.64600003 4278721125
-0.2171791 -0.022763809 0.64600003 4278852709
-0.21661711 -0.02283429 0.648 4278852454
-0.21638 -0.022940001 0.65100002 4278917735
-0.21547049 -0.02297524 0.65200001 4278721128
-0.2142286 -0.02297524 0.65200001 4278524265
-0.21592671 -0.023292379 0.66100001 4278655851
-0.2149924 -0.023327621 0.66200012 4278722152
-0.21373139 -0.023327621 0.66200012 4278722150
-0.2124705 -0.023327621 0.66200012 4278721891
-0.2115286 -0.02336286 0.66299999 4278721888
-0.2102657 -0.02336286 0.66299999 4278787675
-0.1888133 -0.024173331 0.68599999 4282659623
-0.18696 -0.024102859 0.68400002 4282266650
-0.1856571 -0.024102859 0.68400002 4281874220
-0.18435431 -0.024102859 0.68400002 4280294463
-0.1827838 -0.02406762 0.68300003 4278716488
-0.1812171 -0.02403238 0.68199998 4278520913
-0.1793905 -0.0239619 0.68000001 4278324563
-0.1786191 -0.02403238 0.68199998 4278390613
-0.1768 -0.0239619 0.68000001 4278391125
-0.1755048 -0.0239619 0.68000001 4278456405
-0.17420951 -0.0239619 0.68000001 4278521430
-0.1729143 -0.0239619 0.68000001 4278456408
-0.17136671 -0.02392667 0.67900002 4278457181
-0.1700733 -0.02392667 0.67900002 4278654818
-0.16878 -0.02392667 0.67900002 4278918249
-0.27032861 -0.021166669 0.63500011 4281412127
-0.26869521 -0.02113333 0.634 4280951340
-0.26790959 -0.021166669 0.63500011 4279962426
-0.26628 -0.02113333 0.634 4278978872
-0.26465431 -0.0211 0.63300002 4278651191
-0.26303241 -0.021066669 0.63200003 4278389045
-0.2618286 -0.021066669 0.63200003 4278323764
-0.26021239 -0.02103333 0.63099998 4278323764
-0.2581895 -0.02096667 0.62900001 4278323765
-0.25699139 -0.02096667 0.62900001 4278323509
-0.25538671 -0.02093333 0.62800002 4278323510
-0.2541905 -0.02093333 0.62800002 4278389303
-0.2529943 -0.02093333 0.62800002 4278389817
-0.25179809 -0.02093333 0.62800002 4278389816
-0.25060189 -0.02093333 0.62800002 4278389816
-0.2490086 -0.0209 0.62699997 4278389815
-0.2478143 -0.0209 0.62699997 4278389814
-0.2470133 -0.02093333 0.62800002 4278455097
-0.2458171 -0.02093333 0.62800002 4278323772
-0.24462099 -0.02093333 0.62800002 4278258494
-0.2434248 -0.02093333 0.62800002 4278324288
-0.2426143 -0.02096667 0.62900001 4278455361
-0.2414162 -0.02096667 0.62900001 4278390594
-0.2402181 -0.02096667 0.62900001 4278324802
-0.23864 -0.02093333 0.62800002 4278325314
-0.2374438 -0.02093333 0.62800002 4278390595
-0.23662379 -0.02096667 0.62900001 4278390341
-0.2354257 -0.02096667 0.62900001 4278390345
-0.2342276 -0.02096667 0.62900001 4278390605
-0.2330295 -0.02096667 0.62900001 4278391119
-0.23256861 -0.02103333 0.63099998 4278523473
-0.2321 -0.0211 0.63300002 4278654806
-0.231259 -0.02113333 0.634 4278656347
-0.2300514 -0.02113333 0.634 4278655838
-0.22884379 -0.02113333 0.634 4278722913
-0.2276362 -0.02113333 0.634 4278852193
-0.2264286 -0.02113333 0.634 4278983520
-0.22557621 -0.021166669 0.63500011 4279114339
-0.22436669 -0.021166669 0.63500011 4278983526
-0.22421139 -0.021266671 0.63800001 4278852450
-0.22299621 -0.021266671 0.63800001 4278656606
-0.2224762 -0.021333329 0.63999999 4278525026
-0.22194859 -0.021400001 0.64200002 4278524518
-0.2207257 -0.021400001 0.64200002 4278524522
-0.2201867 -0.021466671 0.64400011 4278590062
-0.21964 -0.021533331 0.64600003 4278655592
-0.21840949 -0.021533331 0.64600003 4278786658
-0.2171791 -0.021533331 0.64600003 4278983268
-0.21661711 -0.021600001 0.648 4278983526
-0.2167124 -0.021733331 0.65200001 4278983271
-0.215801 -0.02176667 0.65300012 4278786665
-0.21587139 -0.0219 0.65700001 4278590314
-0.2156 -0.022 0.66000003 4278656108
-0.2146676 -0.02203333 0.66100001 4278787690
-0.21373139 -0.02206667 0.66200012 4278722153
-0.2124705 -0.02206667 0.66200012 4278656615
-0.2115286 -0.0221 0.66299999 4278722405
-0.2102657 -0.0221 0.66299999 4278787936
-0.20899341 -0.02223333 0.66700011 4278984538
-0.2077229 -0.02223333 0.66700011 4279050072
-0.1888133 -0.02286667 0.68599999 4283578422
-0.18750671 -0.02286667 0.68599999 4283251241
-0.1856571 -0.0228 0.68400002 4282922800
-0.18435431 -0.0228 0.68400002 4280756791
-0.1827838 -0.02276667 0.68300003 4278654020
-0.1814829 -0.02276667 0.68300003 4278520913
-0.1799181 -0.022733331 0.68199998 4278455635
-0.1786191 -0.022733331 0.68199998 4278455893
-0.17732 -0.022733331 0.68199998 4278455893
-0.17602099 -0.022733331 0.68199998 4278455893
-0.17420951 -0.02266667 0.68000001 4278455893
-0.1734229 -0.022733331 0.68199998 4278456150
-0.171619 -0.02266667 0.68000001 4278456667
-0.1708248 -0.022733331 0.68199998 4278588768
-0.1695257 -0.022733331 0.68199998 4278720868
-0.1682267 -0.022733331 0.68199998 4279377513
-0.26911911 -0.01995714 0.63500011 4281020461
-0.26790959 -0.01995714 0.63500011 4280093247
-0.26628 -0.019925719 0.634 4279109178
-0.26507241 -0.019925719 0.634 4278782261
-0.2634486 -0.019894291 0.63300002 4278389044
-0.2618286 -0.01986286 0.63200003 4278389043
-0.26021239 -0.01983143 0.63099998 4278323764
-0.25901049 -0.01983143 0.63099998 4278388790
-0.2578086 -0.01983143 0.63099998 4278388790
-0.2557933 -0.01976857 0.62900001 4278388791
-0.25459519 -0.01976857 0.62900001 4278388793
-0.2533972 -0.01976857 0.62900001 4278389052
-0.25219899 -0.01976857 0.62900001 4278389307
-0.25100091 -0.01976857 0.62900001 4278389306
-0.2494057 -0.019737139 0.62800002 4278389818
-0.24820951 -0.019737139 0.62800002 4278389562
-0.24740671 -0.01976857 0.62900001 4278389564
-0.24620859 -0.01976857 0.62900001 4278323775
-0.2450105 -0.01976857 0.62900001 4278324287
-0.2438124 -0.01976857 0.62900001 4278324288
-0.2426143 -0.01976857 0.62900001 4278389824
-0.2421838 -0.01983143 0.63099998 4278389824
-0.24098191 -0.01983143 0.63099998 4278324287
-0.23902 -0.01976857 0.62900001 4278390079
-0.23782191 -0.01976857 0.62900001 4278390338
-0.23662379 -0.01976857 0.62900001 4278455877
-0.2361743 -0.01983143 0.63099998 4278455880
-0.2342276 -0.01976857 0.62900001 4278456396
-0.2330295 -0.01976857 0.62900001 4278391372
-0.23256861 -0.01983143 0.63099998 4278456909
-0.23173331 -0.01986286 0.63200003 4278522195
-0.231259 -0.019925719 0.634 4278589274
-0.2296886 -0.019894291 0.63300002 4278655837
-0.22884379 -0.019925719 0.634 4278721120
-0.2276362 -0.019925719 0.634 4278852195
-0.2264286 -0.019925719 0.634 4278917734
-0.22593141 -0.01998857 0.63599998 4279048804
-0.22472 -0.01998857 0.63599998 4278917731
-0.2245629 -0.020082859 0.63900012 4278852194
-0.2233457 -0.020082859 0.63900012 4278721122
-0.2228238 -0.02014572 0.64099997 4278655844
-0.22194859 -0.020177141 0.64200002 4278590054
-0.2214134 -0.02024 0.64400011 4278590572
-0.2201867 -0.02024 0.64400011 4278655858
-0.2193 -0.02027143 0.64499998 4278787688
-0.2187476 -0.020334279 0.64700001 4278852447
-0.2175152 -0.020334279 0.64700001 4278852195
-0.21661711 -0.020365721 0.648 4278852967
-0.21638 -0.02046 0.65100002 4278919784
-0.21547049 -0.020491431 0.65200001 4278722666
-0.2152143 -0.020585719 0.65499997 4278591339
-0.21592671 -0.020774281 0.66100001 4278656877
-0.2149924 -0.02080572 0.66200012 4278722413
-0.21373139 -0.02080572 0.66200012 4278656621
-0.2121495 -0.020774281 0.66100001 4278591339
-0.21120951 -0.02080572 0.66200012 4278657130
-0.21089999 -0.0209 0.66500002 4278723174
-0.20963331 -0.0209 0.66500002 4278788450
-0.20899341 -0.02096286 0.66700011 4278919519
-0.2077229 -0.02096286 0.66700011 4278984796
-0.18750671 -0.02156 0.68599999 4282333753
-0.18619999 -0.02156 0.68599999 4282202676
-0.18435431 -0.02149714 0.68400002 4280757551
-0.18305141 -0.02149714 0.68400002 4279376448
-0.1814829 -0.021465721 0.68300003 4278980178
-0.18018191 -0.021465721 0.68300003 4278521427
-0.178881 -0.021465721 0.68300003 4278455893
-0.17732 -0.02143429 0.68199998 4278455893
-0.17602099 -0.02143429 0.68199998 4278455893
-0.1747219 -0.02143429 0.68199998 4278456661
-0.1736771 -0.021465721 0.68300003 4278456149
-0.1721238 -0.02143429 0.68199998 4278521946
-0.1708248 -0.02143429 0.68199998 4278588255
-0.16977429 -0.021465721 0.68300003 4278654560
-0.1684733 -0.021465721 0.68300003 4279246178
-0.1671724 -0.021465721 0.68300003 4279838550
-0.26911911 -0.01874762 0.63500011 4281151021
-0.26833141 -0.018777139 0.63599998 4280224318
-0.2667 -0.01874762 0.63500011 4279306552
-0.26507241 -0.01871809 0.634 4278847795
-0.2634486 -0.018688571 0.63300002 4278454575
-0.2618286 -0.01865905 0.63200003 4278389036
-0.26021239 -0.018629519 0.63099998 4278388528
-0.25901049 -0.018629519 0.63099998 4278453812
-0.2578086 -0.018629519 0.63099998 4278519862
-0.2557933 -0.018570481 0.62900001 4278453559
-0.25459519 -0.018570481 0.62900001 4278388539
-0.2533972 -0.018570481 0.62900001 4278388543
-0.25219899 -0.018570481 0.62900001 4278454076
-0.25100091 -0.018570481 0.62900001 4278388793
-0.2498029 -0.018570481 0.62900001 4278389050
-0.2486048 -0.018570481 0.62900001 4278323772
-0.24740671 -0.018570481 0.62900001 4278323774
-0.24620859 -0.018570481 0.62900001 4278323777
-0.2450105 -0.018570481 0.62900001 4278389313
-0.2445876 -0.018629519 0.63099998 4278389313
-0.2437714 -0.01865905 0.63200003 4278389313
-0.2421838 -0.018629519 0.63099998 4278389314
-0.24098191 -0.018629519 0.63099998 4278389569
-0.23902 -0.018570481 0.62900001 4278389825
-0.2385781 -0.018629519 0.63099998 4278455362
-0.2373762 -0.018629519 0.63099998 4278520898
-0.2361743 -0.018629519 0.63099998 4278586950
-0.2349724 -0.018629519 0.63099998 4278522185
-0.2337705 -0.018629519 0.63099998 4278456651
-0.2329372 -0.01865905 0.63200003 4278456908
-0.2321 -0.018688571 0.63300002 4278456658
-0.231259 -0.01871809 0.634 4278588504
-0.2300514 -0.01871809 0.634 4278720346
-0.22884379 -0.01871809 0.634 4278786653
-0.22799531 -0.01874762 0.63500011 4278852449
-0.2271429 -0.018777139 0.63599998 4278918757
-0.22664189 -0.018836191 0.63800001 4278984292
-0.2254267 -0.018836191 0.63800001 4278919267
-0.2249143 -0.018895241 0.63999999 4278852706
-0.2236952 -0.018895241 0.63999999 4278786145
-0.2228238 -0.01892476 0.64099997 4278786403
-0.22194859 -0.01895429 0.64200002 4278720869
-0.2207257 -0.01895429 0.64200002 4278655849
-0.2195029 -0.01895429 0.64200002 4278786925
-0.2193 -0.019042861 0.64499998 4278983528
-0.2187476 -0.019101899 0.64700001 4278852707
-0.2175152 -0.019101899 0.64700001 4278787429
-0.21661711 -0.019131429 0.648 4278787943
-0.21638 -0.01922 0.65100002 4278853993
-0.21547049 -0.019249519 0.65200001 4278723435
-0.2152143 -0.019338099 0.65499997 4278657645
-0.21592671 -0.019515241 0.66100001 4278657648
-0.2149924 -0.01954476 0.66200012 4278656881
-0.21373139 -0.01954476 0.66200012 4278591091
-0.2124705 -0.01954476 0.66200012 4278525551
-0.21120951 -0.01954476 0.66200012 4278592107
-0.21089999 -0.01963333 0.66500002 4278657640
-0.2102638 -0.01969238 0.66700011 4278723942
-0.20899341 -0.01969238 0.66700011 4278853987
-0.2083457 -0.01975143 0.66900003 4278919777
-0.20707139 -0.01975143 0.66900003 4279050334
-0.20538761 -0.020341899 0.68900001 4279378266
-0.2040752 -0.020341899 0.68900001 4279576670
-0.18696 -0.02019429 0.68400002 4281481806
-0.18619999 -0.02025333 0.68599999 4281481030
-0.18435431 -0.02019429 0.68400002 4280824638
-0.18305141 -0.02019429 0.68400002 4280165446
-0.1814829 -0.02016476 0.68300003 4279373647
-0.18018191 -0.02016476 0.68300003 4278652243
-0.178881 -0.02016476 0.68300003 4278521176
-0.17758 -0.02016476 0.68300003 4278455894
-0.1762791 -0.02016476 0.68300003 4278455893
-0.17497811 -0.02016476 0.68300003 4278456147
-0.1736771 -0.02016476 0.68300003 4278521682
-0.1723762 -0.02016476 0.68300003 4278587223
-0.1710753 -0.02016476 0.68300003 4278587741
-0.16977429 -0.02016476 0.68300003 4278654558
-0.1684733 -0.02016476 0.68300003 4279114848
-0.1671724 -0.02016476 0.68300003 4279575641
-0.1658714 -0.02016476 0.68300003 4280561490
-0.26833141 -0.01756571 0.63599998 4280161854
-0.26712 -0.01756571 0.63599998 4279241271
-0.2654905 -0.0175381 0.63500011 4278847793
-0.26386479 -0.017510479 0.634 4278454315
-0.26265711 -0.017510479 0.634 4278389030
-0.2606248 -0.017455241 0.63200003 4278388268
-0.25942099 -0.017455241 0.63200003 4278388531
-0.25821719 -0.017455241 0.63200003 4278454325
-0.2566067 -0.01742762 0.63099998 4278388536
-0.2554048 -0.01742762 0.63099998 4278389053
-0.2542029 -0.01742762 0.63099998 4278454083
-0.25219899 -0.017372379 0.62900001 4278519358
-0.25100091 -0.017372379 0.62900001 4278454073
-0.2498029 -0.017372379 0.62900001 4278388795
-0.2486048 -0.017372379 0.62900001 4278389054
-0.2481934 -0.01742762 0.63099998 4278389056
-0.2469914 -0.01742762 0.63099998 4278389059
-0.2457895 -0.01742762 0.63099998 4278455107
-0.24497519 -0.017455241 0.63200003 4278389315
-0.2441572 -0.01748286 0.63300002 4278389315
-0.2425676 -0.017455241 0.63200003 4278389316
-0.24136379 -0.017455241 0.63200003 4278389572
-0.23977999 -0.01742762 0.63099998 4278389572
-0.2385781 -0.01742762 0.63099998 4278455618
-0.23775239 -0.017455241 0.63200003 4278455360
-0.2365486 -0.017455241 0.63200003 4278521411
-0.2349724 -0.01742762 0.63099998 4278455879
-0.2337705 -0.01742762 0.63099998 4278455881
-0.2329372 -0.017455241 0.63200003 4278455884
-0.2321 -0.01748286 0.63300002 4278456145
-0.231259 -0.017510479 0.634 4278522198
-0.2300514 -0.017510479 0.634 4278588248
-0.2292048 -0.0175381 0.63500011 4278654810
-0.22799531 -0.0175381 0.63500011 4278787167
-0.2278571 -0.017620949 0.63800001 4278787428
-0.2269972 -0.01764857 0.63900012 4278853988
-0.22578 -0.01764857 0.63900012 4278853732
-0.2249143 -0.01767619 0.63999999 4278853730
-0.2240448 -0.017703811 0.64099997 4278787169
-0.2228238 -0.017703811 0.64099997 4278786403
-0.22194859 -0.01773143 0.64200002 4278720869
-0.2214134 -0.01778667 0.64400011 4278655846
-0.2201867 -0.01778667 0.64400011 4278721384
-0.2193 -0.01781429 0.64499998 4278786919
-0.21840949 -0.017841909 0.64600003 4278721895
-0.2171791 -0.017841909 0.64600003 4278657639
-0.21661711 -0.01789714 0.648 4278788456
-0.21638 -0.01798 0.65100002 4278919530
-0.215801 -0.01803524 0.65300012 4278788461
-0.2152143 -0.018090479 0.65499997 4278723696
-0.21592671 -0.018256189 0.66100001 4278723187
-0.2149924 -0.01828381 0.66200012 4278722422
-0.21373139 -0.01828381 0.66200012 4278656633
-0.2124705 -0.01828381 0.66200012 4278591091
-0.2115286 -0.01831143 0.66299999 4278592109
