# .PCD v0.7 - Point Cloud Data file format
VERSION 0.7
FIELDS x y z rgb
SIZE 4 4 4 4
TYPE F F F U
COUNT 1 1 1 1
WIDTH 1121
HEIGHT 1
VIEWPOINT 0 0 0 1 0 0 0
POINTS 1121
DATA ascii
0.1576267 -0.16744 0.64400011 4289507533
0.1588534 -0.16744 0.64400011 4289770447
0.1603286 -0.16769999 0.64499998 4289967571
0.1615572 -0.16769999 0.64499998 4290165209
0.1625333 -0.16744 0.64400011 4290362333
0.16376001 -0.16744 0.64400011 4290624983
0.1649867 -0.16744 0.64400011 4290824148
0.1662133 -0.16744 0.64400011 4291086811
0.16769999 -0.16769999 0.64499998 4291152094
0.16892859 -0.16769999 0.64499998 4291283422
0.1701571 -0.16769999 0.64499998 4291283165
0.17138571 -0.16769999 0.64499998 4291347170
0.17261431 -0.16769999 0.64499998 4291347948
0.17384291 -0.16769999 0.64499998 4291413437
0.12972669 -0.17318191 0.671 4287926942
0.1306143 -0.1726657 0.66900003 4287731110
0.1314943 -0.17214949 0.66700011 4287599275
0.13256571 -0.17189141 0.66600001 4287599025
0.1336333 -0.1716333 0.66500002 4287664557
0.1344943 -0.1711172 0.66299999 4287795114
0.13555241 -0.1708591 0.66200012 4287926186
0.1364 -0.17034291 0.66000003 4287729325
0.13723999 -0.1698267 0.65800011 4287598504
0.1382829 -0.1695686 0.65700001 4287467690
0.13932189 -0.1693105 0.65600002 4287402150
0.14035711 -0.16905241 0.65499997 4287467425
0.14117239 -0.1685362 0.65300012 4287598504
0.14198001 -0.16802 0.65100002 4287664050
0.14322001 -0.16802 0.65100002 4287729839
0.1442381 -0.16776191 0.64999998 4287861417
0.14502861 -0.1672457 0.648 4287992753
0.1462629 -0.1672457 0.648 4288125615
0.1472695 -0.1669876 0.64700001 4288322482
0.1482724 -0.16672949 0.64600003 4288454068
0.1492714 -0.16647141 0.64499998 4288585403
0.1505 -0.16647141 0.64499998 4288651456
0.1514933 -0.1662133 0.64400011 4288783298
0.15272 -0.1662133 0.64400011 4288783812
0.1539467 -0.1662133 0.64400011 4288849865
0.1551733 -0.1662133 0.64400011 4288916175
0.1564 -0.1662133 0.64400011 4289047753
0.1576267 -0.1662133 0.64400011 4289244363
0.1588534 -0.1662133 0.64400011 4289441744
0.16008 -0.1662133 0.64400011 4289638612
0.16130669 -0.1662133 0.64400011 4289836243
0.1625333 -0.1662133 0.64400011 4290034138
0.16376001 -0.1662133 0.64400011 4290231255
0.1649867 -0.1662133 0.64400011 4290495959
0.1662133 -0.1662133 0.64400011 4290823898
0.16744 -0.1662133 0.64400011 4291020766
0.16866671 -0.1662133 0.64400011 4291282908
0.16989329 -0.1662133 0.64400011 4291349218
0.17112 -0.1662133 0.64400011 4291480040
0.1723467 -0.1662133 0.64400011 4291546350
0.1735733 -0.1662133 0.64400011 4291676108
0.12972669 -0.1719038 0.671 4287795371
0.1308095 -0.17164759 0.67000002 4287664293
0.1318886 -0.1713914 0.66900003 4287533229
0.1327648 -0.1708791 0.66700011 4287599025
0.1338343 -0.1706229 0.66600001 4287599018
0.1349 -0.1703667 0.66500002 4287664557
0.1357571 -0.1698543 0.66299999 4287664550
0.1364 -0.1690857 0.66000003 4287598247
0.13723999 -0.16857331 0.65800011 4287532965
0.1382829 -0.16831709 0.65700001 4287336611
0.13932189 -0.168061 0.65600002 4287140001
0.14035711 -0.16780481 0.65499997 4287270822
0.14117239 -0.1672924 0.65300012 4287401901
0.1421981 -0.16703621 0.65200001 4287532972
0.14322001 -0.16677999 0.65100002 4287664300
0.1442381 -0.1665238 0.64999998 4287795371
0.14502861 -0.16601139 0.648 4287860404
0.1462629 -0.16601139 0.648 4288058549
0.1472695 -0.1657552 0.64700001 4288191418
0.1482724 -0.165499 0.64600003 4288322490
0.1492714 -0.1652429 0.64499998 4288454075
0.1505 -0.1652429 0.64499998 4288585917
0.1514933 -0.1649867 0.64400011 4288717759
0.15272 -0.1649867 0.64400011 4288717759
0.1539467 -0.1649867 0.64400011 4288783812
0.1551733 -0.1649867 0.64400011 4288849865
0.15591431 -0.16447429 0.64200002 4288982470
0.1576267 -0.1649867 0.64400011 4289113292
0.1588534 -0.1649867 0.64400011 4289310409
0.16008 -0.1649867 0.64400011 4289441744
0.16130669 -0.1649867 0.64400011 4289572816
0.1625333 -0.1649867 0.64400011 4289770454
0.16376001 -0.1649867 0.64400011 4289968342
0.1649867 -0.1649867 0.64400011 4290232275
0.1662133 -0.1649867 0.64400011 4290496216
0.16744 -0.1649867 0.64400011 4290626524
0.16866671 -0.1649867 0.64400011 4290757603
0.16989329 -0.1649867 0.64400011 4290954977
0.17112 -0.1649867 0.64400011 4291152101
0.1723467 -0.1649867 0.64400011 4291283693
0.1735733 -0.1649867 0.64400011 4291415514
0.17479999 -0.1649867 0.64400011 4290756561
0.12953331 -0.1703714 0.67000002 4287729061
0.1306143 -0.1701171 0.66900003 4287597733
0.1318886 -0.1701171 0.66900003 4287532972
0.1327648 -0.16960859 0.66700011 4287533486
0.1338343 -0.1693543 0.66600001 4287599025
0.1349 -0.1691 0.66500002 4287533486
0.13555241 -0.1683372 0.66200012 4287467176
0.1364 -0.1678286 0.66000003 4287466405
0.13723999 -0.16732 0.65800011 4287466919
0.1380724 -0.16681141 0.65600002 4287206054
0.13932189 -0.16681141 0.65600002 4286943140
0.14035711 -0.1665571 0.65499997 4287073705
0.14117239 -0.1660486 0.65300012 4287270315
0.1421981 -0.1657943 0.65200001 4287467183
0.14322001 -0.16553999 0.65100002 4287664300
0.1442381 -0.16528571 0.64999998 4287730096
0.14502861 -0.1647771 0.648 4287795122
0.1462629 -0.1647771 0.648 4287925943
0.1472695 -0.1645229 0.64700001 4288124602
0.1482724 -0.1642686 0.64600003 4288256701
0.1492714 -0.16401429 0.64499998 4288388286
0.1505 -0.16401429 0.64499998 4288520891
0.1514933 -0.16376001 0.64400011 4288651713
0.15272 -0.16376001 0.64400011 4288651713
0.1539467 -0.16376001 0.64400011 4288717509
0.1551733 -0.16376001 0.64400011 4288848837
0.15591431 -0.1632514 0.64200002 4288981193
0.1571371 -0.1632514 0.64200002 4289047496
0.1588534 -0.16376001 0.64400011 4289178824
0.16008 -0.16376001 0.64400011 4289245641
0.16130669 -0.16376001 0.64400011 4289375948
0.1625333 -0.16376001 0.64400011 4289572559
0.1632514 -0.1632514 0.64200002 4289770447
0.16447429 -0.1632514 0.64200002 4289968848
0.1662133 -0.16376001 0.64400011 4290165466
0.16744 -0.16376001 0.64400011 4290165473
0.16866671 -0.16376001 0.64400011 4290232033
0.1693657 -0.1632514 0.64200002 4290561770
0.17112 -0.16376001 0.64400011 4290889452
0.1723467 -0.16376001 0.64400011 4291021551
0.1735733 -0.16376001 0.64400011 4291152608
0.17479999 -0.16376001 0.64400011 4291153628
0.12953331 -0.1690952 0.67000002 4287532451
0.1306143 -0.1688429 0.66900003 4287466919
0.1314943 -0.16833811 0.66700011 4287467440
0.1327648 -0.16833811 0.66700011 4287532979
0.1338343 -0.16808569 0.66600001 4287664307
0.1349 -0.1678333 0.66500002 4287532715
0.1357571 -0.1673286 0.66299999 4287401387
0.1364 -0.16657139 0.66000003 4287335591
0.13703141 -0.1658143 0.65700001 4287335591
0.1380724 -0.1655619 0.65600002 4287204769
0.13910951 -0.1653095 0.65499997 4287073955
0.13992859 -0.1648048 0.65300012 4287138987
0.14117239 -0.1648048 0.65300012 4287204519
0.1421981 -0.16455241 0.65200001 4287401387
0.14322001 -0.16429999 0.65100002 4287533229
0.1442381 -0.1640476 0.64999998 4287599018
0.14502861 -0.1635429 0.648 4287730353
0.1462629 -0.1635429 0.648 4287795643
0.1472695 -0.1632905 0.64700001 4287927485
0.1482724 -0.1630381 0.64600003 4288059327
0.1492714 -0.16278569 0.64499998 4288191169
0.1505 -0.16278569 0.64499998 4288322754
0.1514933 -0.1625333 0.64400011 4288454082
0.15272 -0.1625333 0.64400011 4288519878
0.1539467 -0.1625333 0.64400011 4288651456
0.1551733 -0.1625333 0.64400011 4288717509
0.15591431 -0.1620286 0.64200002 4288783812
0.1571371 -0.1620286 0.64200002 4288914890
0.15836 -0.1620286 0.64200002 4289046218
0.16008 -0.1625333 0.64400011 4289112778
0.16130669 -0.1625333 0.64400011 4289244620
0.1625333 -0.1625333 0.64400011 4289375948
0.1632514 -0.1620286 0.64200002 4289572816
0.16447429 -0.1620286 0.64200002 4289704915
0.1656972 -0.1620286 0.64200002 4289902296
0.16692001 -0.1620286 0.64200002 4289968099
0.1681429 -0.1620286 0.64200002 4290033895
0.16989329 -0.1625333 0.64400011 4290296045
0.17112 -0.1625333 0.64400011 4290492905
0.1723467 -0.1625333 0.64400011 4290624747
0.1735733 -0.1625333 0.64400011 4290756325
0.17479999 -0.1625333 0.64400011 4290887140
0.1760267 -0.1625333 0.64400011 4291017925
0.12953331 -0.1678191 0.67000002 4287335848
0.1308095 -0.1678191 0.67000002 4287401637
0.1314943 -0.1670676 0.66700011 4287466669
0.13256571 -0.1668171 0.66600001 4287597491
0.1336333 -0.1665667 0.66500002 4287728555
0.1344943 -0.16606569 0.66299999 4287532201
0.13555241 -0.1658152 0.66200012 4287335591
0.13578001 -0.1645629 0.65700001 4287270308
0.13703141 -0.1645629 0.65700001 4287270051
0.1380724 -0.16431241 0.65600002 4287204519
0.13910951 -0.1640619 0.65499997 4287204519
0.14035711 -0.1640619 0.65499997 4287204519
0.14117239 -0.163561 0.65300012 4287204262
0.1421981 -0.1633105 0.65200001 4287335341
0.14322001 -0.16305999 0.65100002 4287466669
0.1442381 -0.16280951 0.64999998 4287533486
0.14502861 -0.1623086 0.648 4287664564
0.1462629 -0.1623086 0.648 4287730103
0.1472695 -0.1620581 0.64700001 4287795892
0.1482724 -0.1618076 0.64600003 4287927734
0.1492714 -0.1615572 0.64499998 4288059319
0.1505 -0.1615572 0.64499998 4288125629
0.1514933 -0.16130669 0.64400011 4288257214
0.15272 -0.16130669 0.64400011 4288388543
0.1539467 -0.16130669 0.64400011 4288585410
0.1551733 -0.16130669 0.64400011 4288586174
0.15591431 -0.1608057 0.64200002 4288651970
0.1571371 -0.1608057 0.64200002 4288783305
0.15836 -0.1608057 0.64200002 4288914890
0.1595829 -0.1608057 0.64200002 4289046218
0.16130669 -0.16130669 0.64400011 4289178317
0.1620286 -0.1608057 0.64200002 4289245897
0.1629971 -0.1605552 0.64099997 4289376462
0.1642181 -0.1605552 0.64099997 4289507790
0.1654391 -0.1605552 0.64099997 4289639375
0.16666 -0.1605552 0.64099997 4289770968
0.16866671 -0.16130669 0.64400011 4289902039
0.16989329 -0.16130669 0.64400011 4290033117
0.17112 -0.16130669 0.64400011 4290164446
0.1723467 -0.16130669 0.64400011 4290295774
0.1735733 -0.16130669 0.64400011 4290427616
0.17479999 -0.16130669 0.64400011 4290624733
0.17547999 -0.1608057 0.64200002 4290821072
0.1767029 -0.1608057 0.64200002 4290099905
0.1279286 -0.1677857 0.67500001 4287336861
0.1292143 -0.1677857 0.67500001 4287270308
0.12953331 -0.1665429 0.67000002 4287269795
0.1310048 -0.16679139 0.671 4287269795
0.1314943 -0.1657972 0.66700011 4287335334
0.13256571 -0.16554859 0.66600001 4287466412
0.1336333 -0.1653 0.66500002 4287531944
0.1344943 -0.16480289 0.66299999 4287400873
0.13555241 -0.1645543 0.66200012 4287204262
0.13578001 -0.16331141 0.65700001 4287204006
0.13703141 -0.16331141 0.65700001 4287138466
0.1380724 -0.1630629 0.65600002 4287138466
0.13910951 -0.1628143 0.65499997 4287138466
0.14035711 -0.1628143 0.65499997 4287138209
0.14117239 -0.1623172 0.65300012 4287138217
0.14241619 -0.1623172 0.65300012 4287203499
0.14322001 -0.16181999 0.65100002 4287334063
0.1442381 -0.1615714 0.64999998 4287401137
0.14502861 -0.1610743 0.648 4287467183
0.1462629 -0.1610743 0.648 4287532722
0.1472695 -0.1608257 0.64700001 4287598518
0.1482724 -0.1605771 0.64600003 4287730360
0.1492714 -0.1603286 0.64499998 4287927734
0.1505 -0.1603286 0.64499998 4287993780
0.1514933 -0.16008 0.64400011 4288126136
0.15272 -0.16008 0.64400011 4288257207
0.1539467 -0.16008 0.64400011 4288388535
0.1551733 -0.16008 0.64400011 4288454332
0.15591431 -0.1595829 0.64200002 4288520385
0.1571371 -0.1595829 0.64200002 4288651970
0.15836 -0.1595829 0.64200002 4288783812
0.1595829 -0.1595829 0.64200002 4288914890
0.1608057 -0.1595829 0.64200002 4289046218
0.1620286 -0.1595829 0.64200002 4289111758
0.1632514 -0.1595829 0.64200002 4289177290
0.16447429 -0.1595829 0.64200002 4289244363
0.1656972 -0.1595829 0.64200002 4289376462
0.16692001 -0.1595829 0.64200002 4289507790
0.1681429 -0.1595829 0.64200002 4289705164
0.16989329 -0.16008 0.64400011 4289836236
0.17112 -0.16008 0.64400011 4290033360
0.1723467 -0.16008 0.64400011 4290098906
0.1735733 -0.16008 0.64400011 4290230491
0.17479999 -0.16008 0.64400011 4290361563
0.1760267 -0.16008 0.64400011 4290493148
0.1772534 -0.16008 0.64400011 4290296544
0.17848 -0.16008 0.64400011 4290095288
0.1268305 -0.16674671 0.67600012 4286285721
0.1279286 -0.1665 0.67500001 4287269281
0.1292143 -0.1665 0.67500001 4287203749
0.12992001 -0.16576 0.67200011 4287204262
0.1310048 -0.16551331 0.671 4287204262
0.1318886 -0.16502 0.66900003 4287269545
0.13256571 -0.16428 0.66600001 4287334827
0.1336333 -0.16403329 0.66500002 4287400359
0.1344943 -0.16354001 0.66299999 4287269538
0.1353476 -0.1630467 0.66100001 4287138217
0.13578001 -0.16205999 0.65700001 4287072420
0.13703141 -0.16205999 0.65700001 4287072677
0.1380724 -0.1618133 0.65600002 4287072927
0.13910951 -0.1615667 0.65499997 4287072420
0.14035711 -0.1615667 0.65499997 4287071907
0.14117239 -0.1610733 0.65300012 4287072164
0.14241619 -0.1610733 0.65300012 4287137960
0.14343999 -0.1608267 0.65200001 4287203242
0.14445999 -0.16057999 0.65100002 4287269802
0.14547621 -0.16033331 0.64999998 4287335598
0.1462629 -0.15984 0.648 4287401387
0.1472695 -0.1595933 0.64700001 4287467183
0.1485019 -0.1595933 0.64700001 4287598511
0.1492714 -0.1591 0.64499998 4287796142
0.1505 -0.1591 0.64499998 4287862195
0.1514933 -0.1588534 0.64400011 4287993780
0.15272 -0.1588534 0.64400011 4288126136
0.1539467 -0.1588534 0.64400011 4288257207
0.1551733 -0.1588534 0.64400011 4288323003
0.15591431 -0.15836 0.64200002 4288388800
0.1571371 -0.15836 0.64200002 4288520898
0.15836 -0.15836 0.64200002 4288651970
0.1595829 -0.15836 0.64200002 4288783812
0.1608057 -0.15836 0.64200002 4288914883
0.1620286 -0.15836 0.64200002 4288914883
0.1632514 -0.15836 0.64200002 4288980679
0.16447429 -0.15836 0.64200002 4289047239
0.1654391 -0.1581133 0.64099997 4289178060
0.16666 -0.1581133 0.64099997 4289309132
0.1681429 -0.15836 0.64200002 4289507276
0.16989329 -0.1588534 0.64400011 4289705164
0.17112 -0.1588534 0.64400011 4289967314
0.1723467 -0.1588534 0.64400011 4289967828
0.1735733 -0.1588534 0.64400011 4290032853
0.17479999 -0.1588534 0.64400011 4290098136
0.1760267 -0.1588534 0.64400011 4290230491
0.1772534 -0.1588534 0.64400011 4290562277
0.17848 -0.1588534 0.64400011 4290884278
0.17970669 -0.1588534 0.64400011 4288320905
0.1268305 -0.1654591 0.67600012 4286613667
0.1279286 -0.1652143 0.67500001 4287138980
0.1292143 -0.1652143 0.67500001 4287138466
0.12992001 -0.16448 0.67200011 4287138723
0.1310048 -0.1642352 0.671 4287204006
0.1318886 -0.1637457 0.66900003 4287334820
0.13256571 -0.1630114 0.66600001 4287334820
0.1336333 -0.1627667 0.66500002 4287334563
0.1344943 -0.1622771 0.66299999 4287269024
0.13555241 -0.1620324 0.66200012 4287137696
0.13578001 -0.16080859 0.65700001 4287072164
0.13703141 -0.16080859 0.65700001 4287007138
0.1380724 -0.1605638 0.65600002 4286941342
0.13910951 -0.160319 0.65499997 4286875553
0.14035711 -0.160319 0.65499997 4286875296
0.14117239 -0.1598295 0.65300012 4286941092
0.14241619 -0.1598295 0.65300012 4287006631
0.14343999 -0.15958481 0.65200001 4287006631
0.14445999 -0.15933999 0.65100002 4287137960
0.14547621 -0.1590952 0.64999998 4287204006
0.1467143 -0.1590952 0.64999998 4287335591
0.1472695 -0.158361 0.64700001 4287401637
0.1485019 -0.158361 0.64700001 4287532972
0.1492714 -0.1578714 0.64499998 4287664814
0.1505 -0.1578714 0.64499998 4287730346
0.1514933 -0.1576267 0.64400011 4287795628
0.15272 -0.1576267 0.64400011 4287928241
0.1539467 -0.1576267 0.64400011 4288060340
0.1551733 -0.1576267 0.64400011 4288125629
0.1564 -0.1576267 0.64400011 4288190912
0.1571371 -0.1571371 0.64200002 4288322247
0.15836 -0.1571371 0.64200002 4288453568
0.1595829 -0.1571371 0.64200002 4288586431
0.1608057 -0.1571371 0.64200002 4288783805
0.1620286 -0.1571371 0.64200002 4288783812
0.1632514 -0.1571371 0.64200002 4288784069
0.16447429 -0.1571371 0.64200002 4288915147
0.1654391 -0.1568924 0.64099997 4289046218
0.16666 -0.1568924 0.64099997 4289178060
0.1681429 -0.1571371 0.64200002 4289309645
0.1693657 -0.1571371 0.64200002 4289441744
0.17112 -0.1576267 0.64400011 4289639118
0.1723467 -0.1576267 0.64400011 4289704658
0.1735733 -0.1576267 0.64400011 4289835222
0.17479999 -0.1576267 0.64400011 4289901018
0.1760267 -0.1576267 0.64400011 4290032347
0.1772534 -0.1576267 0.64400011 4290362854
0.17848 -0.1576267 0.64400011 4290691500
0.17970669 -0.1576267 0.64400011 4288913784
0.1809333 -0.1576267 0.64400011 4287194514
0.1268305 -0.1641714 0.67600012 4286943140
0.1279286 -0.1639286 0.67500001 4287073184
0.1292143 -0.1639286 0.67500001 4287072934
0.12992001 -0.16320001 0.67200011 4287138217
0.1310048 -0.1629571 0.671 4287269288
0.1318886 -0.1624714 0.66900003 4287400359
0.13256571 -0.1617429 0.66600001 4287334820
0.1332314 -0.1610143 0.66299999 4287334563
0.1342914 -0.1607714 0.66200012 4287269024
0.1353476 -0.1605286 0.66100001 4287203235
0.1359867 -0.15979999 0.65800011 4287072164
0.13703141 -0.1595571 0.65700001 4286940828
0.1380724 -0.1593143 0.65600002 4286809757
0.13910951 -0.1590714 0.65499997 4286678686
0.14035711 -0.1590714 0.65499997 4286744218
0.14117239 -0.1585857 0.65300012 4286875296
0.14241619 -0.1585857 0.65300012 4286874782
0.14343999 -0.1583429 0.65200001 4286875296
0.14445999 -0.15809999 0.65100002 4287006624
0.14547621 -0.15785711 0.64999998 4287138209
0.1467143 -0.15785711 0.64999998 4287270051
0.1474971 -0.1573714 0.648 4287401380
0.1485019 -0.1571286 0.64700001 4287467690
0.1492714 -0.1566429 0.64499998 4287533735
0.1505 -0.1566429 0.64499998 4287599532
0.1514933 -0.1564 0.64400011 4287665071
0.15272 -0.1564 0.64400011 4287731374
0.1539467 -0.1564 0.64400011 4287862966
0.1551733 -0.1564 0.64400011 4287929012
0.1564 -0.1564 0.64400011 4288059576
0.1576267 -0.1564 0.64400011 4288190398
0.1588534 -0.1564 0.64400011 4288322240
0.1595829 -0.15591431 0.64200002 4288455102
0.1608057 -0.15591431 0.64200002 4288651706
0.1620286 -0.15591431 0.64200002 4288651713
0.1632514 -0.15591431 0.64200002 4288652227
0.16447429 -0.15591431 0.64200002 4288784069
0.1656972 -0.15591431 0.64200002 4288915140
0.16692001 -0.15591431 0.64200002 4288981450
0.16866671 -0.1564 0.64400011 4289112778
0.16989329 -0.1564 0.64400011 4289244363
0.17112 -0.1564 0.64400011 4289375948
0.1723467 -0.1564 0.64400011 4289508304
0.1735733 -0.1564 0.64400011 4289638612
0.17479999 -0.1564 0.64400011 4289704401
0.1760267 -0.1564 0.64400011 4289835736
0.1772534 -0.1564 0.64400011 4290165723
0.17848 -0.1564 0.64400011 4290558651
0.1799857 -0.1566429 0.64499998 4289575328
0.1812143 -0.1566429 0.64499998 4288576147
0.1824429 -0.1566429 0.64499998 4286988427
0.12591431 -0.16336571 0.67799997 4287007124
0.1268305 -0.1628838 0.67600012 4286941349
0.1279286 -0.1626429 0.67500001 4286941349
0.1292143 -0.1626429 0.67500001 4286941349
0.12992001 -0.16192 0.67200011 4287006888
0.1308095 -0.16143809 0.67000002 4287072677
0.1318886 -0.1611971 0.66900003 4287203235
0.13256571 -0.1604743 0.66600001 4287137960
0.1332314 -0.1597514 0.66299999 4287138209
0.1342914 -0.15951049 0.66200012 4287072156
0.1353476 -0.1592695 0.66100001 4287072156
0.1359867 -0.1585467 0.65800011 4286940835
0.13703141 -0.1583057 0.65700001 4286875296
0.1380724 -0.1580648 0.65600002 4286809757
0.13910951 -0.1578238 0.65499997 4286744475
0.14035711 -0.1578238 0.65499997 4286809757
0.14117239 -0.1573419 0.65300012 4286809757
0.14241619 -0.1573419 0.65300012 4286809757
0.14343999 -0.15710101 0.65200001 4286875296
0.14445999 -0.15685999 0.65100002 4286941085
0.14547621 -0.1566191 0.64999998 4287006881
0.1467143 -0.1566191 0.64999998 4287072677
0.1474971 -0.15613709 0.648 4287204006
0.1485019 -0.1558962 0.64700001 4287270315
0.1492714 -0.1554143 0.64499998 4287402664
0.1505 -0.1554143 0.64499998 4287402664
0.1514933 -0.1551733 0.64400011 4287468460
0.15272 -0.1551733 0.64400011 4287599532
0.1539467 -0.1551733 0.64400011 4287665585
0.1551733 -0.1551733 0.64400011 4287796913
0.1564 -0.1551733 0.64400011 4287862966
0.1576267 -0.1551733 0.64400011 4287993787
0.1588534 -0.1551733 0.64400011 4288125116
0.16008 -0.1551733 0.64400011 4288257207
0.16130669 -0.1551733 0.64400011 4288454332
0.1625333 -0.1551733 0.64400011 4288454845
0.16376001 -0.1551733 0.64400011 4288520891
0.1649867 -0.1551733 0.64400011 4288652227
0.1656972 -0.1546914 0.64200002 4288783812
0.16692001 -0.1546914 0.64200002 4288849608
0.16866671 -0.1551733 0.64400011 4288981193
0.16989329 -0.1551733 0.64400011 4289112778
0.17112 -0.1551733 0.64400011 4289178317
0.1723467 -0.1551733 0.64400011 4289309139
0.1735733 -0.1551733 0.64400011 4289440203
0.17479999 -0.1551733 0.64400011 4289573322
0.1760267 -0.1551733 0.64400011 4289704651
0.1772534 -0.1551733 0.64400011 4289967564
0.17848 -0.1551733 0.64400011 4290230734
0.17970669 -0.1551733 0.64400011 4289837520
0.1809333 -0.1551733 0.64400011 4289433245
0.18216 -0.1551733 0.64400011 4287195756
0.12591431 -0.1620743 0.67799997 4287137945
0.1268305 -0.16159619 0.67600012 4286940835
0.1279286 -0.1613571 0.67500001 4286810014
0.1292143 -0.1613571 0.67500001 4286875296
0.12992001 -0.16064 0.67200011 4286941349
0.1308095 -0.1601619 0.67000002 4286941606
0.1318886 -0.1599229 0.66900003 4287006624
0.13256571 -0.1592057 0.66600001 4287006881
0.1336333 -0.15896671 0.66500002 4287006624
0.1344943 -0.1584886 0.66299999 4286941085
0.1353476 -0.1580105 0.66100001 4286940571
0.1359867 -0.1572933 0.65800011 4286875039
0.13703141 -0.15705431 0.65700001 4286874782
0.1380724 -0.1568152 0.65600002 4286874782
0.13932189 -0.1568152 0.65600002 4286875032
0.14035711 -0.1565762 0.65499997 4286809757
0.1416048 -0.1565762 0.65499997 4286809757
0.14241619 -0.1560981 0.65300012 4286809757
0.14343999 -0.1558591 0.65200001 4286875296
0.14445999 -0.15561999 0.65100002 4286875553
0.14547621 -0.15538099 0.64999998 4286875553
0.1467143 -0.15538099 0.64999998 4286941085
0.1474971 -0.1549028 0.648 4287006881
0.1487314 -0.1549028 0.648 4287137953
0.1495029 -0.1544248 0.64600003 4287270051
0.1505 -0.1541857 0.64499998 4287271079
0.1517286 -0.1541857 0.64499998 4287336618
0.15272 -0.1539467 0.64400011 4287402414
0.1539467 -0.1539467 0.64400011 4287533999
0.1554143 -0.1541857 0.64499998 4287600052
0.1564 -0.1539467 0.64400011 4287731124
0.1576267 -0.1539467 0.64400011 4287862709
0.1588534 -0.1539467 0.64400011 4287993787
0.16008 -0.1539467 0.64400011 4288126136
0.16130669 -0.1539467 0.64400011 4288257464
0.1625333 -0.1539467 0.64400011 4288323510
0.16376001 -0.1539467 0.64400011 4288389049
0.1649867 -0.1539467 0.64400011 4288520377
0.1656972 -0.15346859 0.64200002 4288651963
0.16692001 -0.15346859 0.64200002 4288783298
0.16866671 -0.1539467 0.64400011 4288915140
0.16989329 -0.1539467 0.64400011 4288981964
0.17112 -0.1539467 0.64400011 4289046989
0.1723467 -0.1539467 0.64400011 4289178060
0.1735733 -0.1539467 0.64400011 4289309389
0.17479999 -0.1539467 0.64400011 4289442251
0.1760267 -0.1539467 0.64400011 4289638862
0.1772534 -0.1539467 0.64400011 4289769933
0.17848 -0.1539467 0.64400011 4289967571
0.17970669 -0.1539467 0.64400011 4290168021
0.1809333 -0.1539467 0.64400011 4290355097
0.18216 -0.1539467 0.64400011 4287393630
0.1833867 -0.1539467 0.64400011 4284509821
0.12591431 -0.1607829 0.67799997 4287203998
0.1268305 -0.1603086 0.67600012 4287072156
0.1279286 -0.1600714 0.67500001 4287006881
0.1290229 -0.1598343 0.67400002 4286941342
0.12972669 -0.1591229 0.671 4286941856
0.1308095 -0.1588857 0.67000002 4286941342
0.1318886 -0.1586486 0.66900003 4286941085
0.13256571 -0.15793709 0.66600001 4286940835
0.1336333 -0.1577 0.66500002 4286940578
0.1344943 -0.1572257 0.66299999 4286874782
0.13555241 -0.15698861 0.66200012 4286874782
0.1359867 -0.15604 0.65800011 4286809243
0.13703141 -0.15580291 0.65700001 4286809243
0.1380724 -0.15556569 0.65600002 4286808986
0.13932189 -0.15556569 0.65600002 4286808986
0.14035711 -0.1553286 0.65499997 4286743454
0.1416048 -0.1553286 0.65499997 4286677915
0.14241619 -0.1548543 0.65300012 4286677915
0.14343999 -0.1546171 0.65200001 4286678172
0.14445999 -0.15437999 0.65100002 4286743711
0.14547621 -0.1541429 0.64999998 4286809500
0.1467143 -0.1541429 0.64999998 4286809500
0.1474971 -0.1536686 0.648 4286875803
0.1487314 -0.1536686 0.648 4286941085
0.1495029 -0.15319429 0.64600003 4287072164
0.1505 -0.1529572 0.64499998 4287138473
0.1517286 -0.1529572 0.64499998 4287204776
0.15272 -0.15272 0.64400011 4287270822
0.1539467 -0.15272 0.64400011 4287336875
0.1554143 -0.1529572 0.64499998 4287467954
0.1564 -0.15272 0.64400011 4287533750
0.1576267 -0.15272 0.64400011 4287664564
0.1588534 -0.15272 0.64400011 4287795643
0.16008 -0.15272 0.64400011 4287993530
0.16130669 -0.15272 0.64400011 4288125879
0.1625333 -0.15272 0.64400011 4288191668
0.16376001 -0.15272 0.64400011 4288322996
0.16447429 -0.1522457 0.64200002 4288388792
0.1656972 -0.1522457 0.64200002 4288520634
0.16692001 -0.1522457 0.64200002 4288651706
0.16866671 -0.15272 0.64400011 4288717759
0.16989329 -0.15272 0.64400011 4288783562
0.17112 -0.15272 0.64400011 4288849608
0.1718114 -0.1522457 0.64200002 4288980936
0.1730343 -0.1522457 0.64200002 4289113035
0.1742571 -0.1522457 0.64200002 4289244106
0.1760267 -0.15272 0.64400011 4289374928
0.1772534 -0.15272 0.64400011 4289506256
0.17848 -0.15272 0.64400011 4289637848
0.17970669 -0.15272 0.64400011 4289967842
0.1809333 -0.15272 0.64400011 4290361498
0.18216 -0.15272 0.64400011 4287988820
0.1833867 -0.15272 0.64400011 4285611133
0.124241 -0.1606676 0.68300003 4285622380
0.1253581 -0.1604324 0.68199998 4286482332
0.12591431 -0.1594914 0.67799997 4287334299
0.1268305 -0.15902101 0.67600012 4287268767
0.1279286 -0.1587857 0.67500001 4287203228
0.1290229 -0.1585505 0.67400002 4287072927
0.12972669 -0.1578448 0.671 4286941342
0.1308095 -0.15760951 0.67000002 4286941342
0.1318886 -0.15737429 0.66900003 4286940835
0.13256571 -0.1566686 0.66600001 4286875296
0.1336333 -0.1564333 0.66500002 4286874782
0.1344943 -0.1559629 0.66299999 4286808986
0.13555241 -0.1557276 0.66200012 4286808986
0.1359867 -0.15478671 0.65800011 4286743454
0.13703141 -0.1545514 0.65700001 4286743197
0.1380724 -0.1543162 0.65600002 4286743204
0.13932189 -0.1543162 0.65600002 4286742691
0.14035711 -0.154081 0.65499997 4286676894
0.1416048 -0.154081 0.65499997 4286611612
0.14241619 -0.1536105 0.65300012 4286546330
0.14365999 -0.1536105 0.65300012 4286546073
0.14445999 -0.15313999 0.65100002 4286611355
0.14569999 -0.15313999 0.65100002 4286742940
0.1467143 -0.15290479 0.64999998 4286743454
0.1474971 -0.1524343 0.648 4286809243
0.1487314 -0.1524343 0.648 4286809757
0.1495029 -0.1519638 0.64600003 4286875296
0.15073331 -0.1519638 0.64600003 4286941349
0.1517286 -0.1517286 0.64499998 4287072934
0.1529572 -0.1517286 0.64499998 4287139751
0.1541857 -0.1517286 0.64499998 4287205290
0.1554143 -0.1517286 0.64499998 4287270829
0.1564 -0.1514933 0.64400011 4287401901
0.1576267 -0.1514933 0.64400011 4287532979
0.1588534 -0.1514933 0.64400011 4287664307
0.16008 -0.1514933 0.64400011 4287861681
0.16130669 -0.1514933 0.64400011 4288059319
0.1620286 -0.1510229 0.64200002 4288125622
0.1632514 -0.1510229 0.64200002 4288256693
0.16447429 -0.1510229 0.64200002 4288322739
0.1656972 -0.1510229 0.64200002 4288454075
0.16666 -0.15078761 0.64099997 4288520121
0.167881 -0.15078761 0.64099997 4288585667
0.1693657 -0.1510229 0.64200002 4288651463
0.1705886 -0.1510229 0.64200002 4288717766
0.1718114 -0.1510229 0.64200002 4288783812
0.1735733 -0.1514933 0.64400011 4288915654
0.17479999 -0.1514933 0.64400011 4289047496
0.1760267 -0.1514933 0.64400011 4289178060
0.1772534 -0.1514933 0.64400011 4289243343
0.17848 -0.1514933 0.64400011 4289309645
0.17970669 -0.1514933 0.64400011 4289836243
0.1812143 -0.1517286 0.64499998 4290426024
0.18216 -0.1514933 0.64400011 4288586616
0.1833867 -0.1514933 0.64400011 4286798967
0.1846133 -0.1514933 0.64400011 4285530479
0.1244229 -0.1596 0.68400002 4286017906
0.1257257 -0.1596 0.68400002 4286547871
0.12591431 -0.1582 0.67799997 4287072156
0.1272057 -0.1582 0.67799997 4287006110
0.1281181 -0.15773331 0.67600012 4287005854
0.1292143 -0.1575 0.67500001 4286940571
0.12972669 -0.15656669 0.671 4286875296
0.1308095 -0.1563333 0.67000002 4286875039
0.1318886 -0.1561 0.66900003 4286874782
0.13256571 -0.15539999 0.66600001 4286808993
0.1336333 -0.1551667 0.66500002 4286743454
0.1344943 -0.1547 0.66299999 4286742940
0.13555241 -0.1544667 0.66200012 4286742940
0.1359867 -0.15353329 0.65800011 4286677401
0.13703141 -0.1533 0.65700001 4286677151
0.1380724 -0.15306669 0.65600002 4286611369
0.13932189 -0.15306669 0.65600002 4286611362
0.14035711 -0.1528333 0.65499997 4286611355
0.1416048 -0.1528333 0.65499997 4286546073
0.14241619 -0.1523667 0.65300012 4286480284
0.14365999 -0.1523667 0.65300012 4286480284
0.1446819 -0.1521333 0.65200001 4286545816
0.14569999 -0.15189999 0.65100002 4286677151
0.1467143 -0.1516667 0.64999998 4286677151
0.14795239 -0.1516667 0.64999998 4286742940
0.1487314 -0.1512 0.648 4286742947
0.1497343 -0.1509667 0.64700001 4286743204
0.15073331 -0.15073331 0.64600003 4286809514
0.1517286 -0.1505 0.64499998 4286941349
0.1529572 -0.1505 0.64499998 4287007402
0.1541857 -0.1505 0.64499998 4287073191
0.1554143 -0.1505 0.64499998 4287204270
0.1566429 -0.1505 0.64499998 4287270059
0.1576267 -0.15026671 0.64400011 4287401394
0.1588534 -0.15026671 0.64400011 4287532972
0.16008 -0.15026671 0.64400011 4287730096
0.1608057 -0.1498 0.64200002 4287861938
0.1620286 -0.1498 0.64200002 4287927991
0.1632514 -0.1498 0.64200002 4288059576
0.16447429 -0.1498 0.64200002 4288191154
0.1656972 -0.1498 0.64200002 4288322490
0.16692001 -0.1498 0.64200002 4288388286
0.1681429 -0.1498 0.64200002 4288454082
0.1693657 -0.1498 0.64200002 4288520135
0.1705886 -0.1498 0.64200002 4288586438
0.1718114 -0.1498 0.64200002 4288717766
0.1735733 -0.15026671 0.64400011 4288784069
0.17479999 -0.15026671 0.64400011 4288915140
0.1760267 -0.15026671 0.64400011 4289046468
0.1772534 -0.15026671 0.64400011 4289112007
0.17848 -0.15026671 0.64400011 4289177547
0.17970669 -0.15026671 0.64400011 4289507020
0.1809333 -0.15026671 0.64400011 4289836471
0.18216 -0.15026671 0.64400011 4289046946
0.1833867 -0.15026671 0.64400011 4288251498
0.1244229 -0.1582972 0.68400002 4286478200
0.1253581 -0.15783431 0.68199998 4286613660
0.12591431 -0.1569086 0.67799997 4286809757
0.1272057 -0.1569086 0.67799997 4286809507
0.1279286 -0.1562143 0.67500001 4286875039
0.1292143 -0.1562143 0.67500001 4286875032
0.12972669 -0.15528861 0.671 4286874782
0.1308095 -0.1550571 0.67000002 4286809243
0.1318886 -0.1548257 0.66900003 4286808986
0.1327648 -0.1543629 0.66700011 4286743454
0.1338343 -0.1541314 0.66600001 4286677401
0.1344943 -0.1534372 0.66299999 4286677144
0.13555241 -0.15320569 0.66200012 4286742683
0.1364 -0.15274291 0.66000003 4286677401
0.13703141 -0.1520486 0.65700001 4286611612
0.1380724 -0.1518171 0.65600002 4286545823
0.13932189 -0.1518171 0.65600002 4286545816
0.1405714 -0.1518171 0.65600002 4286545816
0.1416048 -0.1515857 0.65499997 4286545816
0.1428524 -0.1515857 0.65499997 4286480277
0.14365999 -0.1511229 0.65300012 4286414745
0.14490379 -0.1511229 0.65300012 4286546073
0.14569999 -0.15065999 0.65100002 4286677144
0.1467143 -0.15042859 0.64999998 4286677144
0.14795239 -0.15042859 0.64999998 4286677151
0.1491905 -0.15042859 0.64999998 4286677151
0.1497343 -0.1497343 0.64700001 4286677408
0.15073331 -0.1495029 0.64600003 4286743204
0.1519638 -0.1495029 0.64600003 4286809764
0.1529572 -0.1492714 0.64499998 4286875817
0.1541857 -0.1492714 0.64499998 4287006888
0.1554143 -0.1492714 0.64499998 4287072684
0.1566429 -0.1492714 0.64499998 4287203756
0.1576267 -0.14904 0.64400011 4287335084
0.1588534 -0.14904 0.64400011 4287466926
0.16008 -0.14904 0.64400011 4287598768
0.16130669 -0.14904 0.64400011 4287730353
0.1625333 -0.14904 0.64400011 4287796656
0.16376001 -0.14904 0.64400011 4287862445
0.16447429 -0.1485772 0.64200002 4287994280
0.1656972 -0.1485772 0.64200002 4288190897
0.16692001 -0.1485772 0.64200002 4288256693
0.1681429 -0.1485772 0.64200002 4288388029
0.1693657 -0.1485772 0.64200002 4288454332
0.1705886 -0.1485772 0.64200002 4288520128
0.1718114 -0.1485772 0.64200002 4288586431
0.1735733 -0.14904 0.64400011 4288717752
0.17479999 -0.14904 0.64400011 4288783805
0.1760267 -0.14904 0.64400011 4288914876
0.1772534 -0.14904 0.64400011 4288980422
0.17848 -0.14904 0.64400011 4289046211
0.17970669 -0.14904 0.64400011 4289178310
0.1809333 -0.14904 0.64400011 4289310916
0.18216 -0.14904 0.64400011 4289510845
0.1833867 -0.14904 0.64400011 4289695866
0.124241 -0.15676481 0.68300003 4286742912
0.1249905 -0.15607619 0.68000001 4286744225
0.12591431 -0.1556171 0.67799997 4286744225
0.1272057 -0.1556171 0.67799997 4286809764
0.1279286 -0.15492859 0.67500001 4286875296
0.1290229 -0.1546991 0.67400002 4286809243
0.12972669 -0.1540105 0.671 4286809243
0.1308095 -0.153781 0.67000002 4286743447
0.1318886 -0.1535514 0.66900003 4286743190
0.1327648 -0.1530924 0.66700011 4286677658
0.1338343 -0.1528628 0.66600001 4286611869
0.1349 -0.15263329 0.66500002 4286611612
0.13555241 -0.1519448 0.66200012 4286611605
0.1364 -0.1514857 0.66000003 4286546066
0.13723999 -0.1510267 0.65800011 4286546066
0.1382829 -0.1507971 0.65700001 4286480020
0.13932189 -0.15056761 0.65600002 4286480020
0.14035711 -0.1503381 0.65499997 4286480020
0.1416048 -0.1503381 0.65499997 4286480020
0.14241619 -0.1498791 0.65300012 4286414481
0.14365999 -0.1498791 0.65300012 4286348949
0.14490379 -0.1498791 0.65300012 4286414488
0.14569999 -0.14941999 0.65100002 4286545816
0.14693999 -0.14941999 0.65100002 4286545816
0.14795239 -0.1491905 0.64999998 4286545816
0.1491905 -0.1491905 0.64999998 4286546073
0.1499657 -0.1487314 0.648 4286611869
0.1509667 -0.1485019 0.64700001 4286611869
0.1519638 -0.1482724 0.64600003 4286678429
0.15319429 -0.1482724 0.64600003 4286809507
0.1541857 -0.1480429 0.64499998 4286940835
0.1554143 -0.1480429 0.64499998 4287006375
0.1566429 -0.1480429 0.64499998 4287138217
0.1578714 -0.1480429 0.64499998 4287203749
0.1588534 -0.14781331 0.64400011 4287335598
0.16008 -0.14781331 0.64400011 4287401644
0.16130669 -0.14781331 0.64400011 4287467946
0.1625333 -0.14781331 0.64400011 4287599275
0.16376001 -0.14781331 0.64400011 4287665577
0.1649867 -0.14781331 0.64400011 4287796898
0.1656972 -0.1473543 0.64200002 4287928491
0.16692001 -0.1473543 0.64200002 4288060083
0.1681429 -0.1473543 0.64200002 4288190897
0.1693657 -0.1473543 0.64200002 4288322482
0.17112 -0.14781331 0.64400011 4288388535
0.1718114 -0.1473543 0.64200002 4288520113
0.1735733 -0.14781331 0.64400011 4288586166
0.17479999 -0.14781331 0.64400011 4288652212
0.1760267 -0.14781331 0.64400011 4288783034
0.1772534 -0.14781331 0.64400011 4288848830
0.17848 -0.14781331 0.64400011 4288915140
0.17970669 -0.14781331 0.64400011 4288980936
0.1809333 -0.14781331 0.64400011 4289112271
0.18216 -0.14781331 0.64400011 4289505756
0.1833867 -0.14781331 0.64400011 4289898121
0.1240591 -0.1552362 0.68199998 4287005318
0.1249905 -0.154781 0.68000001 4286875546
0.1261 -0.15455329 0.67900002 4286743711
0.1272057 -0.15432569 0.67799997 4286809250
0.1281181 -0.15387049 0.67600012 4286874782
0.1292143 -0.1536428 0.67500001 4286809243
0.12972669 -0.1527324 0.671 4286743190
0.1308095 -0.1525048 0.67000002 4286743190
0.1318886 -0.1522771 0.66900003 4286743190
0.1327648 -0.1518219 0.66700011 4286678165
0.1338343 -0.1515943 0.66600001 4286611862
0.1349 -0.1513667 0.66500002 4286546330
0.1357571 -0.15091141 0.66299999 4286545559
0.1364 -0.1502286 0.66000003 4286479763
0.13723999 -0.1497733 0.65800011 4286480020
0.1382829 -0.1495457 0.65700001 4286480020
0.13932189 -0.1493181 0.65600002 4286479506
0.14035711 -0.1490905 0.65499997 4286413967
0.1416048 -0.1490905 0.65499997 4286413967
0.1428524 -0.1490905 0.65499997 4286348435
0.1441 -0.1490905 0.65499997 4286283152
0.14490379 -0.1486353 0.65300012 4286348949
0.14592379 -0.14840759 0.65200001 4286414488
0.14693999 -0.14817999 0.65100002 4286414488
0.14795239 -0.14795239 0.64999998 4286480277
0.1491905 -0.14795239 0.64999998 4286480534
0.1499657 -0.1474971 0.648 4286546073
0.1509667 -0.1472695 0.64700001 4286546330
0.152199 -0.1472695 0.64700001 4286611869
0.15319429 -0.1470419 0.64600003 4286743197
0.1541857 -0.1468143 0.64499998 4286874276
0.1554143 -0.1468143 0.64499998 4286939815
0.1566429 -0.1468143 0.64499998 4287071650
0.1578714 -0.1468143 0.64499998 4287138217
0.1591 -0.1468143 0.64499998 4287204006
0.16008 -0.1465867 0.64400011 4287204783
0.16130669 -0.1465867 0.64400011 4287270572
0.1625333 -0.1465867 0.64400011 4287402157
0.16376001 -0.1465867 0.64400011 4287533743
0.1649867 -0.1465867 0.64400011 4287599532
0.1656972 -0.1461314 0.64200002 4287665585
0.16692001 -0.1461314 0.64200002 4287863472
0.1681429 -0.1461314 0.64200002 4288059826
0.1693657 -0.1461314 0.64200002 4288191411
0.17112 -0.1465867 0.64400011 4288322739
0.1723467 -0.1465867 0.64400011 4288388785
0.1735733 -0.1465867 0.64400011 4288520113
0.17479999 -0.1465867 0.64400011 4288586937
0.1760267 -0.1465867 0.64400011 4288651449
0.1772534 -0.1465867 0.64400011 4288716481
0.17848 -0.1465867 0.64400011 4288782784
0.1799857 -0.1468143 0.64499998 4288849094
0.1812143 -0.1468143 0.64499998 4288915147
0.1824429 -0.1468143 0.64499998 4289507797
0.18395621 -0.1470419 0.64600003 4290095502
0.1851867 -0.1470419 0.64600003 4287468367
0.1864171 -0.1470419 0.64600003 4284837215
0.1242 -0.1557429 0.69000012 4285430665
0.124241 -0.1541629 0.68300003 4286941328
0.1253581 -0.1539371 0.68199998 4286874518
0.1262857 -0.1534857 0.68000001 4286808215
0.12739331 -0.15325999 0.67900002 4286808223
0.1281181 -0.1525829 0.67600012 4286808472
0.1290229 -0.15213139 0.67400002 4286742683
0.12972669 -0.1514543 0.671 4286676630
0.1308095 -0.15122861 0.67000002 4286676887
0.1318886 -0.1510029 0.66900003 4286611855
0.1327648 -0.15055139 0.66700011 4286546316
0.1338343 -0.1503257 0.66600001 4286546316
0.1349 -0.15009999 0.66500002 4286480277
0.1357571 -0.14964861 0.66299999 4286479763
0.1364 -0.14897139 0.66000003 4286414231
0.13723999 -0.14851999 0.65800011 4286348949
0.1382829 -0.1482943 0.65700001 4286348435
0.13932189 -0.14806861 0.65600002 4286348178
0.1405714 -0.14806861 0.65600002 4286413717
0.1416048 -0.1478429 0.65499997 4286479249
0.1428524 -0.1478429 0.65499997 4286348178
0.1441 -0.1478429 0.65499997 4286217363
0.14490379 -0.14739139 0.65300012 4286282903
0.14569999 -0.14693999 0.65100002 4286282903
0.14693999 -0.14693999 0.65100002 4286348692
0.14795239 -0.1467143 0.64999998 4286349205
0.1491905 -0.1467143 0.64999998 4286414745
0.1499657 -0.1462629 0.648 4286480277
0.1509667 -0.1460371 0.64700001 4286480534
0.152199 -0.1460371 0.64700001 4286546073
0.15319429 -0.14581139 0.64600003 4286611869
0.1541857 -0.1455857 0.64499998 4286742940
0.1554143 -0.1455857 0.64499998 4286874019
0.1566429 -0.1455857 0.64499998 4286939808
0.1578714 -0.1455857 0.64499998 4287071907
0.1591 -0.1455857 0.64499998 4287138217
0.16008 -0.14535999 0.64400011 4287204013
0.16130669 -0.14535999 0.64400011 4287204526
0.1625333 -0.14535999 0.64400011 4287336112
0.16376001 -0.14535999 0.64400011 4287402414
0.1649867 -0.14535999 0.64400011 4287467954
0.1656972 -0.14490861 0.64200002 4287533486
0.16692001 -0.14490861 0.64200002 4287731124
0.16866671 -0.14535999 0.64400011 4287928241
0.16989329 -0.14535999 0.64400011 4287994287
0.17112 -0.14535999 0.64400011 4288125615
0.1723467 -0.14535999 0.64400011 4288190897
0.1735733 -0.14535999 0.64400011 4288321976
0.17479999 -0.14535999 0.64400011 4288388279
0.1760267 -0.14535999 0.64400011 4288454332
0.1772534 -0.14535999 0.64400011 4288519871
0.1787571 -0.1455857 0.64499998 4288585667
0.1799857 -0.1455857 0.64499998 4288651206
0.1812143 -0.1455857 0.64499998 4288716745
0.1824429 -0.1455857 0.64499998 4289244877
0.18395621 -0.14581139 0.64600003 4289770654
0.18547329 -0.1460371 0.64700001 4287928683
0.18670569 -0.1460371 0.64700001 4286141798
0.12342 -0.1551 0.69300002 4284178537
0.1242 -0.1544286 0.69000012 4285565589
0.124241 -0.15286189 0.68300003 4286940564
0.1253581 -0.15263809 0.68199998 4286939287
0.1262857 -0.15219051 0.68000001 4286939030
0.127581 -0.15219051 0.68000001 4286807966
0.1281181 -0.1512952 0.67600012 4286742676
0.1290229 -0.1508476 0.67400002 4286677137
0.12972669 -0.1501762 0.671 4286676880
0.1308095 -0.1499524 0.67000002 4286611091
0.1318886 -0.1497286 0.66900003 4286545552
0.1327648 -0.149281 0.66700011 4286480020
0.1338343 -0.14905711 0.66600001 4286480020
0.1349 -0.1488333 0.66500002 4286414738
0.1357571 -0.1483857 0.66299999 4286413974
0.13660669 -0.1479381 0.66100001 4286348435
0.1376572 -0.1477143 0.66000003 4286282903
0.1382829 -0.1470429 0.65700001 4286217363
0.13932189 -0.1468191 0.65600002 4286216850
0.1405714 -0.1468191 0.65600002 4286413203
0.1416048 -0.14659519 0.65499997 4286609807
0.1428524 -0.14659519 0.65499997 4286413460
0.1441 -0.14659519 0.65499997 4286216850
0.14490379 -0.14614759 0.65300012 4286216857
0.14592379 -0.14592379 0.65200001 4286216850
0.14693999 -0.14569999 0.65100002 4286217363
0.14817999 -0.14569999 0.65100002 4286282903
0.1491905 -0.14547621 0.64999998 4286348692
0.1499657 -0.14502861 0.648 4286414745
0.1512 -0.14502861 0.648 4286415002
0.152199 -0.14480481 0.64700001 4286480541
0.1534314 -0.14480481 0.64700001 4286546330
0.1544248 -0.144581 0.64600003 4286677408
0.1554143 -0.1443572 0.64499998 4286742940
0.1566429 -0.1443572 0.64499998 4286874268
0.1578714 -0.1443572 0.64499998 4287006110
0.1591 -0.1443572 0.64499998 4287137446
0.16008 -0.1441333 0.64400011 4287137960
0.16130669 -0.1441333 0.64400011 4287203756
0.1625333 -0.1441333 0.64400011 4287270315
0.16376001 -0.1441333 0.64400011 4287336104
0.1649867 -0.1441333 0.64400011 4287336361
0.1662133 -0.1441333 0.64400011 4287402157
0.16692001 -0.1436857 0.64200002 4287599532
0.16866671 -0.1441333 0.64400011 4287796656
0.16989329 -0.1441333 0.64400011 4287862959
0.17112 -0.1441333 0.64400011 4287928498
0.1723467 -0.1441333 0.64400011 4287994037
0.1735733 -0.1441333 0.64400011 4288125365
0.17479999 -0.1441333 0.64400011 4288191161
0.1760267 -0.1441333 0.64400011 4288322746
0.1775286 -0.1443572 0.64499998 4288323260
0.1787571 -0.1443572 0.64499998 4288388800
0.1799857 -0.1443572 0.64499998 4288454082
0.1812143 -0.1443572 0.64499998 4288585667
0.1827257 -0.144581 0.64600003 4289048002
0.18395621 -0.144581 0.64600003 4289506484
0.18576001 -0.14502861 0.648 4288457629
0.1869943 -0.14502861 0.648 4287457642
0.18822861 -0.14502861 0.648 4285661486
0.1230638 -0.1533362 0.69099998 4284247153
0.12366 -0.15244859 0.68699998 4285563805
0.1244229 -0.1517829 0.68400002 4286940057
0.1255419 -0.15156101 0.68300003 4286873498
0.1266571 -0.1513391 0.68199998 4286873498
0.127581 -0.15089519 0.68000001 4286742426
0.1286867 -0.1506733 0.67900002 4286677137
0.12940571 -0.15000761 0.67600012 4286677123
0.12972669 -0.14889809 0.671 4286611598
0.1308095 -0.1486762 0.67000002 4286545552
0.1318886 -0.14845429 0.66900003 4286545302
0.1327648 -0.14801051 0.66700011 4286479770
0.1338343 -0.1477886 0.66600001 4286414488
0.1351029 -0.1477886 0.66600001 4286348692
0.13616671 -0.14756671 0.66500002 4286348435
0.13660669 -0.146679 0.66100001 4286282896
0.1376572 -0.14645711 0.66000003 4286217363
0.1384933 -0.1460133 0.65800011 4286151574
0.13953429 -0.1457914 0.65700001 4286151310
0.1405714 -0.1455695 0.65600002 4286216336
0.141821 -0.1455695 0.65600002 4286347407
0.1428524 -0.1453476 0.65499997 4286216336
0.1441 -0.1453476 0.65499997 4286151061
0.1453476 -0.1453476 0.65499997 4286150804
0.14592379 -0.1446819 0.65200001 4286150804
0.14693999 -0.14445999 0.65100002 4286151310
0.14817999 -0.14445999 0.65100002 4286217107
0.14941999 -0.14445999 0.65100002 4286282903
0.1499657 -0.1437943 0.648 4286349205
0.1512 -0.1437943 0.648 4286348949
0.152199 -0.1435724 0.64700001 4286414488
0.1534314 -0.1435724 0.64700001 4286480027
0.1544248 -0.1433505 0.64600003 4286545823
0.1554143 -0.1431286 0.64499998 4286677151
0.1566429 -0.1431286 0.64499998 4286743454
0.1578714 -0.1431286 0.64499998 4286809243
0.1591 -0.1431286 0.64499998 4286940578
0.1603286 -0.1431286 0.64499998 4287006110
0.16130669 -0.1429067 0.64400011 4287137446
0.1625333 -0.1429067 0.64400011 4287137967
0.16376001 -0.1429067 0.64400011 4287204262
0.1649867 -0.1429067 0.64400011 4287270565
0.1662133 -0.1429067 0.64400011 4287336618
0.16744 -0.1429067 0.64400011 4287468203
0.16866671 -0.1429067 0.64400011 4287665585
0.16989329 -0.1429067 0.64400011 4287731117
0.17112 -0.1429067 0.64400011 4287862195
0.1723467 -0.1429067 0.64400011 4287927991
0.1735733 -0.1429067 0.64400011 4287994294
0.17479999 -0.1429067 0.64400011 4288059833
0.1760267 -0.1429067 0.64400011 4288191668
0.1775286 -0.1431286 0.64499998 4288257721
0.1787571 -0.1431286 0.64499998 4288389563
0.1799857 -0.1431286 0.64499998 4288454589
0.1812143 -0.1431286 0.64499998 4288520128
0.1824429 -0.1431286 0.64499998 4288849087
0.18395621 -0.1433505 0.64600003 4289177803
0.18576001 -0.1437943 0.648 4288916175
0.1869943 -0.1437943 0.648 4288645740
0.18822861 -0.1437943 0.648 4286477058
0.1230638 -0.15202001 0.69099998 4284378229
0.12366 -0.15114 0.68699998 4285629594
0.1244229 -0.15048 0.68400002 4286939551
0.1255419 -0.15026 0.68300003 4286873498
0.1266571 -0.15004 0.68199998 4286807959
0.127581 -0.1496 0.68000001 4286742426
0.1286867 -0.14938 0.67900002 4286676887
0.12940571 -0.14872 0.67600012 4286610834
0.12992001 -0.14783999 0.67200011 4286611348
0.1310048 -0.14762001 0.671 4286545809
0.1320857 -0.14740001 0.67000002 4286545302
0.1331629 -0.14718001 0.66900003 4286479763
0.1338343 -0.14652 0.66600001 4286414231
0.1351029 -0.14652 0.66600001 4286348692
0.13616671 -0.1463 0.66500002 4286282896
0.13660669 -0.14542 0.66100001 4286217363
0.1376572 -0.1452 0.66000003 4286151567
0.1384933 -0.14476 0.65800011 4286151310
0.13953429 -0.14454 0.65700001 4286151310
0.14078569 -0.14454 0.65700001 4286085257
0.141821 -0.14432 0.65600002 4286085257
0.1430705 -0.14432 0.65600002 4286084494
0.1441 -0.1441 0.65499997 4286085008
0.1453476 -0.1441 0.65499997 4286085008
0.14592379 -0.14343999 0.65200001 4286150547
0.14693999 -0.14322001 0.65100002 4286151310
0.14817999 -0.14322001 0.65100002 4286151310
0.14941999 -0.14322001 0.65100002 4286217356
0.1499657 -0.14256001 0.648 4286282896
0.1512 -0.14256001 0.648 4286283152
0.1524343 -0.14256001 0.648 4286348435
0.1534314 -0.14234 0.64700001 4286413974
0.1544248 -0.14212 0.64600003 4286480020
0.15565521 -0.14212 0.64600003 4286546073
0.1566429 -0.1419 0.64499998 4286677401
0.1578714 -0.1419 0.64499998 4286677915
0.1591 -0.1419 0.64499998 4286743454
0.1603286 -0.1419 0.64499998 4286874525
0.1615572 -0.1419 0.64499998 4287071393
0.16278569 -0.1419 0.64499998 4287071907
0.16401429 -0.1419 0.64499998 4287138466
0.1652429 -0.1419 0.64499998 4287205026
0.1662133 -0.14168 0.64400011 4287270565
0.16744 -0.14168 0.64400011 4287402407
0.16866671 -0.14168 0.64400011 4287599275
0.1701571 -0.1419 0.64499998 4287665071
0.17138571 -0.1419 0.64499998 4287796142
0.1723467 -0.14168 0.64400011 4287796656
0.1735733 -0.14168 0.64400011 4287862452
0.17479999 -0.14168 0.64400011 4287994037
0.1760267 -0.14168 0.64400011 4288125622
0.1775286 -0.1419 0.64499998 4288257714
0.1787571 -0.1419 0.64499998 4288388792
0.1799857 -0.1419 0.64499998 4288389306
0.1812143 -0.1419 0.64499998 4288454845
0.1827257 -0.14212 0.64600003 4288651456
0.18395621 -0.14212 0.64600003 4288915147
0.18547329 -0.14234 0.64700001 4289379024
0.1869943 -0.14256001 0.648 4289828471
0.18822861 -0.14256001 0.648 4287319841
0.12366 -0.1498314 0.68699998 4285956256
0.1244229 -0.1491771 0.68400002 4286742940
0.1255419 -0.1489591 0.68300003 4286742691
0.1266571 -0.14874101 0.68199998 4286742683
0.127581 -0.14830481 0.68000001 4286676887
0.1284972 -0.1478686 0.67799997 4286611355
0.1292143 -0.14721429 0.67500001 4286611362
0.12992001 -0.14656 0.67200011 4286676887
0.1310048 -0.1463419 0.671 4286545559
0.1320857 -0.1461238 0.67000002 4286480020
0.1331629 -0.1459057 0.66900003 4286414481
0.1340352 -0.1454695 0.66700011 4286348949
0.1351029 -0.14525139 0.66600001 4286283152
0.13616671 -0.1450333 0.66500002 4286217363
0.13702001 -0.1445972 0.66299999 4286151567
0.13786571 -0.144161 0.66100001 4286085778
0.1389143 -0.1439428 0.66000003 4286085771
0.13953429 -0.1432886 0.65700001 4286151303
0.14078569 -0.1432886 0.65700001 4286085243
0.141821 -0.1430705 0.65600002 4286085257
0.1430705 -0.1430705 0.65600002 4286019725
0.1441 -0.1428524 0.65499997 4286019725
0.1453476 -0.1428524 0.65499997 4286085008
0.14592379 -0.1421981 0.65200001 4286085008
