# .PCD v0.7 - Point Cloud Data file format
VERSION 0.7
FIELDS x y z rgb
SIZE 4 4 4 4
TYPE F F F U
COUNT 1 1 1 1
WIDTH 1056
HEIGHT 1
VIEWPOINT 0 0 0 1 0 0 0
POINTS 1056
DATA ascii
0.00072000001 -0.20231999 0.75599998 4287728305
0.002165715 -0.2028552 0.75800002 4287532708
0.0036095241 -0.2028552 0.75800002 4287400859
0.005053333 -0.2028552 0.75800002 4287332765
0.0064971428 -0.2028552 0.75800002 4286545566
0.0079409527 -0.2028552 0.75800002 4285817199
0.0093847616 -0.2028552 0.75800002 4284563767
-0.132119 -0.20592859 0.77499998 4284832855
-0.12980001 -0.20460001 0.76999998 4285291348
-0.12800001 -0.2040686 0.76800001 4285028688
-0.1265371 -0.2040686 0.76800001 4284767582
-0.1249114 -0.2038029 0.76700002 4284571501
-0.1231286 -0.2032714 0.76499999 4284440432
-0.1216714 -0.2032714 0.76499999 4284637299
-0.1195857 -0.20220859 0.76099998 4284899698
-0.1176705 -0.2014114 0.75800002 4284900465
-0.1162267 -0.2014114 0.75800002 4284966016
-0.11448 -0.20088001 0.75599998 4284966032
-0.11304 -0.20088001 0.75599998 4284969366
-0.1114524 -0.2006143 0.75500011 4285496989
-0.1097229 -0.2000829 0.75300002 4286089639
-0.1082886 -0.2000829 0.75300002 4287339444
-0.1067124 -0.1998172 0.75199997 4288651192
-0.10472 -0.1987543 0.74800003 4289112500
-0.1032952 -0.1987543 0.74800003 4289635764
-0.1017343 -0.19848859 0.74699998 4289373615
-0.1003114 -0.19848859 0.74699998 4289176233
-0.098888583 -0.19848859 0.74699998 4289110430
-0.097204767 -0.1979572 0.74500012 4289042593
-0.095785722 -0.1979572 0.74500012 4288779680
-0.09436667 -0.1979572 0.74500012 4288514968
-0.092947617 -0.1979572 0.74500012 4288054410
-0.09152858 -0.1979572 0.74500012 4287659918
-0.090109527 -0.1979572 0.74500012 4287199631
-0.08809524 -0.1966286 0.74000001 4286740871
-0.084225707 -0.19104861 0.71899998 4286544253
-0.082625717 -0.1905171 0.71700001 4286410627
-0.081146657 -0.1902514 0.71600002 4285622915
-0.079782858 -0.1902514 0.71600002 4284905124
-0.078419052 -0.1902514 0.71600002 4288252612
-0.077055238 -0.1902514 0.71600002 4291678177
-0.075691432 -0.1902514 0.71600002 4293263100
-0.074327618 -0.1902514 0.71600002 4294894844
-0.072963811 -0.1902514 0.71600002 4290758388
-0.071699999 -0.1905171 0.71700001 4286692087
-0.070334293 -0.1905171 0.71700001 4286231800
-0.069160953 -0.19104861 0.71899998 4285768187
-0.067791432 -0.19104861 0.71899998 4285242359
-0.06669905 -0.1918457 0.72200012 4284783607
-0.065142862 -0.19131429 0.72000003 4284653048
-0.063948572 -0.1918457 0.72200012 4284520948
-0.062660009 -0.1921114 0.72299999 4284454640
-0.061282869 -0.1921114 0.72299999 4284388335
-0.059905719 -0.1921114 0.72299999 4284256750
-0.05852858 -0.1921114 0.72299999 4284190699
-0.057309531 -0.1926429 0.72500002 4283863016
-0.055928569 -0.1926429 0.72500002 4283600620
-0.054622859 -0.1929086 0.72600001 4283403248
-0.053240001 -0.1929086 0.72600001 4283271916
-0.05185714 -0.1929086 0.72600001 4283335656
-0.05061334 -0.19344001 0.72799999 4283402469
-0.049226671 -0.19344001 0.72799999 4283533539
-0.047905721 -0.19370569 0.72899997 4283662043
-0.046517141 -0.19370569 0.72899997 4283397075
-0.045252379 -0.1942371 0.73100001 4283135186
-0.043919999 -0.19450291 0.73200011 4283136208
-0.04252572 -0.19450291 0.73200011 4283136207
-0.04124381 -0.1950343 0.73400003 4283268047
-0.03984572 -0.1950343 0.73400003 4283398093
-0.038447618 -0.1950343 0.73400003 4283529163
-0.03715048 -0.1955657 0.73600012 4283659466
-0.035748571 -0.1955657 0.73600012 4283004105
-0.03439334 -0.1958314 0.73699999 4282346956
-0.032989532 -0.1958314 0.73699999 4281755599
-0.031585719 -0.1958314 0.73699999 4281231309
-0.030263809 -0.1963629 0.73900002 4281230028
-0.02885619 -0.1963629 0.73900002 4281296849
-0.02744857 -0.1963629 0.73900002 4282342614
-0.02607619 -0.1966286 0.74000001 4283462869
-0.024733329 -0.19716001 0.74199998 4285889239
-0.023351431 -0.19742569 0.74299997 4288388307
-0.021936189 -0.19742569 0.74299997 4289576662
-0.02057619 -0.1979572 0.74500012 4290757588
-0.019157151 -0.1979572 0.74500012 4291417298
-0.017785709 -0.19848859 0.74699998 4292137680
-0.016362861 -0.19848859 0.74699998 4292141269
-0.01494 -0.19848859 0.74699998 4292202976
-0.01353524 -0.1987543 0.74800003 4291154663
-0.01211048 -0.1987543 0.74800003 4290165466
-0.01068571 -0.1987543 0.74800003 4289113042
-0.0092857154 -0.1992857 0.75000012 4288061888
-0.0078780958 -0.1998172 0.75199997 4287599539
-0.0064457138 -0.1998172 0.75199997 4287139508
-0.00502 -0.2000829 0.75300002 4287006139
-0.0035952381 -0.2006143 0.75500011 4286875061
-0.0021571431 -0.2006143 0.75500011 4286874033
-0.00072000001 -0.20088001 0.75599998 4286874283
0.00072000001 -0.20088001 0.75599998 4287072164
0.002165715 -0.2014114 0.75800002 4287268767
0.0036095241 -0.2014114 0.75800002 4287268760
0.0050666672 -0.20194291 0.76000011 4287267739
0.0065142862 -0.20194291 0.76000011 4286479770
0.0079199998 -0.20088001 0.75599998 4285686377
0.0093599996 -0.20088001 0.75599998 4284497716
-0.132119 -0.2044524 0.77499998 4284964180
-0.1301371 -0.20366099 0.77200001 4285226828
-0.1283333 -0.2031333 0.76999998 4285030213
-0.1265371 -0.20260569 0.76800001 4284768343
-0.1249114 -0.2023419 0.76700002 4284702825
-0.1234505 -0.2023419 0.76700002 4284571755
-0.1216714 -0.20181429 0.76499999 4284702829
-0.1195857 -0.2007591 0.76099998 4284768880
-0.1176705 -0.19996759 0.75800002 4284900468
-0.11592 -0.19944 0.75599998 4285031542
-0.11448 -0.19944 0.75599998 4284966008
-0.1128905 -0.19917621 0.75500011 4284965752
-0.1111571 -0.1986486 0.75300002 4285293944
-0.1097229 -0.1986486 0.75300002 4285556369
-0.1081448 -0.19838481 0.75199997 4286216621
-0.1064286 -0.1978572 0.75000012 4286809529
-0.10458 -0.1970657 0.74699998 4287272135
-0.1031571 -0.1970657 0.74699998 4287669952
-0.1017343 -0.1970657 0.74699998 4288521926
-0.1003114 -0.1970657 0.74699998 4289373879
-0.09862382 -0.19653811 0.74500012 4289373094
-0.097204767 -0.19653811 0.74500012 4289437099
-0.095785722 -0.19653811 0.74500012 4289043378
-0.09436667 -0.19653811 0.74500012 4288715183
-0.092947617 -0.19653811 0.74500012 4288516517
-0.091282859 -0.1960105 0.74299997 4288318108
-0.089504763 -0.195219 0.74000001 4287923602
-0.08809524 -0.195219 0.74000001 4287528583
-0.083874293 -0.1888876 0.71600002 4287331716
-0.082510479 -0.1888876 0.71600002 4287134591
-0.081146657 -0.1888876 0.71600002 4286476930
-0.079782858 -0.1888876 0.71600002 4285882503
-0.078419052 -0.1888876 0.71600002 4287398033
-0.077055238 -0.1888876 0.71600002 4288983241
-0.075691432 -0.1888876 0.71600002 4291747327
-0.074327618 -0.1888876 0.71600002 4294572793
-0.072963811 -0.1888876 0.71600002 4291483636
-0.071699999 -0.18915141 0.71700001 4288454902
-0.070334293 -0.18915141 0.71700001 4286618613
-0.068968572 -0.18915141 0.71700001 4284782070
-0.067791432 -0.1896791 0.71899998 4284650740
-0.066514291 -0.1899429 0.72000003 4284584947
-0.065142862 -0.1899429 0.72000003 4284453618
-0.063771427 -0.1899429 0.72000003 4284322291
-0.062573344 -0.1904705 0.72200012 4284322292
-0.061282869 -0.1907343 0.72299999 4284256750
-0.059905719 -0.1907343 0.72299999 4284191208
-0.05852858 -0.1907343 0.72299999 4284125671
-0.057151429 -0.1907343 0.72299999 4283928550
-0.055928569 -0.1912619 0.72500002 4283731684
-0.054547619 -0.1912619 0.72500002 4283665635
-0.053240001 -0.1915257 0.72600001 4283534049
-0.05185714 -0.1915257 0.72600001 4283533535
-0.05047429 -0.1915257 0.72600001 4283533536
-0.049226671 -0.1920533 0.72799999 4283599074
-0.047905721 -0.1923172 0.72899997 4283730140
-0.046517141 -0.1923172 0.72899997 4283332054
-0.045252379 -0.19284479 0.73100001 4282940372
-0.04386 -0.19284479 0.73100001 4282612690
-0.04252572 -0.1931086 0.73200011 4282285009
-0.041131429 -0.1931086 0.73200011 4282218449
-0.03973715 -0.1931086 0.73200011 4282152908
-0.038447618 -0.19363619 0.73400003 4282347207
-0.037049521 -0.19363619 0.73400003 4282608834
-0.035748571 -0.1941638 0.73600012 4283657405
-0.03434667 -0.1941638 0.73600012 4284701635
-0.032989532 -0.19442759 0.73699999 4285164234
-0.031585719 -0.19442759 0.73699999 4285688775
-0.030181911 -0.19442759 0.73699999 4286152645
-0.02885619 -0.1949552 0.73900002 4286678992
-0.02744857 -0.1949552 0.73900002 4287275232
-0.026040951 -0.1949552 0.73900002 4287937497
-0.024666671 -0.195219 0.74000001 4288856787
-0.02325714 -0.195219 0.74000001 4289781472
-0.02190667 -0.1957467 0.74199998 4289910510
-0.02052095 -0.1960105 0.74299997 4290109418
-0.019157151 -0.19653811 0.74500012 4289842665
-0.0177381 -0.19653811 0.74500012 4289645277
-0.01631905 -0.19653811 0.74500012 4289509589
-0.0149 -0.19653811 0.74500012 4289439197
-0.01351714 -0.1970657 0.74699998 4288846054
-0.01211048 -0.19732951 0.74800003 4288248779
-0.01068571 -0.19732951 0.74800003 4287790005
-0.0092857154 -0.1978572 0.75000012 4287330988
-0.0078780958 -0.19838481 0.75199997 4287201444
-0.0064457138 -0.19838481 0.75199997 4287070365
-0.00502 -0.1986486 0.75300002 4287006103
-0.0035952381 -0.19917621 0.75500011 4286940821
-0.0021571431 -0.19917621 0.75500011 4286875032
-0.00072000001 -0.19944 0.75599998 4286875032
0.00072000001 -0.19944 0.75599998 4286941085
0.002165715 -0.19996759 0.75800002 4287072149
0.0036095241 -0.19996759 0.75800002 4287072142
0.0050666672 -0.2004953 0.76000011 4287138452
0.0065142862 -0.2004953 0.76000011 4286217877
0.0079619056 -0.2004953 0.76000011 4285359459
0.0093599996 -0.19944 0.75599998 4284566066
-0.132119 -0.2029762 0.77499998 4285095767
-0.1301371 -0.2021905 0.77200001 4285226838
-0.1283333 -0.2016667 0.76999998 4285030486
-0.1265371 -0.2011428 0.76800001 4284833885
-0.1249114 -0.200881 0.76700002 4284769125
-0.1231286 -0.2003572 0.76499999 4284768105
-0.1216714 -0.2003572 0.76499999 4284702062
-0.1199 -0.1998333 0.76300001 4284702323
-0.1176705 -0.1985238 0.75800002 4284900472
-0.1162267 -0.1985238 0.75800002 4285097078
-0.11448 -0.198 0.75599998 4285031795
-0.1128905 -0.1977381 0.75500011 4285031797
-0.1111571 -0.19721431 0.75300002 4285031800
-0.1097229 -0.19721431 0.75300002 4285097350
-0.1081448 -0.1969524 0.75199997 4285031572
-0.1064286 -0.1964286 0.75000012 4285035420
-0.10458 -0.1956429 0.74699998 4285366181
-0.1031571 -0.1956429 0.74699998 4285763763
-0.1017343 -0.1956429 0.74699998 4287671236
-0.1000429 -0.1951191 0.74500012 4289637306
-0.09862382 -0.1951191 0.74500012 4289702838
-0.097204767 -0.1951191 0.74500012 4289832882
-0.09552858 -0.1945952 0.74299997 4289373108
-0.094113342 -0.1945952 0.74299997 4288978602
-0.092698097 -0.1945952 0.74299997 4288978346
-0.090914287 -0.19380949 0.74000001 4289042857
-0.089141913 -0.1930238 0.73699999 4288715168
-0.087619051 -0.1927619 0.73600012 4288385438
-0.083874293 -0.1875238 0.71600002 4288122775
-0.082510479 -0.1875238 0.71600002 4287858577
-0.081146657 -0.1875238 0.71600002 4287333007
-0.079782858 -0.1875238 0.71600002 4286871699
-0.078419052 -0.1875238 0.71600002 4286608279
-0.077055238 -0.1875238 0.71600002 4286356156
-0.075480007 -0.18700001 0.71399999 4290300641
-0.074327618 -0.1875238 0.71600002 4294239723
-0.072963811 -0.1875238 0.71600002 4292211704
-0.071599998 -0.1875238 0.71600002 4290229235
-0.070236191 -0.1875238 0.71600002 4287007723
-0.068968572 -0.1877857 0.71700001 4283796973
-0.067602858 -0.1877857 0.71700001 4284125938
-0.066514291 -0.18857139 0.72000003 4284453359
-0.065142862 -0.18857139 0.72000003 4284322029
-0.063771427 -0.18857139 0.72000003 4284190700
-0.062399998 -0.18857139 0.72000003 4284190700
-0.0611981 -0.1890953 0.72200012 4284190696
-0.059822861 -0.1890953 0.72200012 4284125412
-0.058447629 -0.1890953 0.72200012 4284059619
-0.057151429 -0.1893571 0.72299999 4283994082
-0.055928569 -0.189881 0.72500002 4283928033
-0.054547619 -0.189881 0.72500002 4283862497
-0.053166669 -0.189881 0.72500002 4283861726
-0.05185714 -0.1901429 0.72600001 4283796188
-0.05047429 -0.1901429 0.72600001 4283729370
-0.049091429 -0.1901429 0.72600001 4283729112
-0.047839999 -0.19066671 0.72799999 4283792593
-0.046517141 -0.19092859 0.72899997 4283266506
-0.045128569 -0.19092859 0.72899997 4282741195
-0.04386 -0.1914524 0.73100001 4282085324
-0.04246762 -0.1914524 0.73100001 4281429451
-0.041131429 -0.1917143 0.73200011 4281165514
-0.03973715 -0.1917143 0.73200011 4280905681
-0.03834286 -0.1917143 0.73200011 4281226456
-0.037049521 -0.19223811 0.73400003 4281560270
-0.03565143 -0.19223811 0.73400003 4284312773
-0.034253329 -0.19223811 0.73400003 4287140300
-0.032944761 -0.1927619 0.73600012 4288655574
-0.031585719 -0.1930238 0.73699999 4290165209
-0.030181911 -0.1930238 0.73699999 4291088860
-0.0287781 -0.1930238 0.73699999 4292071898
-0.02737429 -0.1930238 0.73699999 4292272340
-0.026040951 -0.19354761 0.73900002 4292462300
-0.024633329 -0.19354761 0.73900002 4291810533
-0.02325714 -0.19380949 0.74000001 4291151580
-0.021847621 -0.19380949 0.74000001 4290298328
-0.02049333 -0.1943333 0.74199998 4289507790
-0.019105719 -0.1945952 0.74299997 4288324552
-0.0177381 -0.1951191 0.74500012 4287143876
-0.01631905 -0.1951191 0.74500012 4286879678
-0.0149 -0.1951191 0.74500012 4286680512
-0.01351714 -0.1956429 0.74699998 4286480320
-0.01211048 -0.19590481 0.74800003 4286349491
-0.01068571 -0.19590481 0.74800003 4286480805
-0.0092857154 -0.1964286 0.75000012 4286677415
-0.0078780958 -0.1969524 0.75199997 4286808993
-0.0064285719 -0.1964286 0.75000012 4287005854
-0.00502 -0.19721431 0.75300002 4287006360
-0.0035952381 -0.1977381 0.75500011 4287071892
-0.0021571431 -0.1977381 0.75500011 4286941078
-0.00072000001 -0.198 0.75599998 4286875289
0.00072000001 -0.198 0.75599998 4286875546
0.002165715 -0.1985238 0.75800002 4286941078
0.0036095241 -0.1985238 0.75800002 4286941071
0.0050666672 -0.1990476 0.76000011 4287006096
0.0065142862 -0.1990476 0.76000011 4286022544
0.0079619056 -0.1990476 0.76000011 4285032289
-0.1301371 -0.20072 0.77200001 4285096288
-0.1283333 -0.20020001 0.76999998 4284965223
-0.1265371 -0.19968 0.76800001 4284768612
-0.1249114 -0.19942001 0.76700002 4284702562
-0.1231286 -0.1989 0.76499999 4284636520
-0.1216714 -0.1989 0.76499999 4284567919
-0.1195857 -0.19786 0.76099998 4284500342
-0.117981 -0.19760001 0.76000011 4284699517
-0.1162267 -0.19708 0.75800002 4284900726
-0.11448 -0.19656 0.75599998 4284900719
-0.1128905 -0.1963 0.75500011 4284901235
-0.1111571 -0.19577999 0.75300002 4284966520
-0.1095771 -0.19552 0.75199997 4285032569
-0.1081448 -0.19552 0.75199997 4285032570
-0.1064286 -0.19499999 0.75000012 4285032576
-0.10458 -0.19422001 0.74699998 4285296519
-0.102881 -0.1937 0.74500012 4285559202
-0.1014619 -0.1937 0.74500012 4286414788
-0.1000429 -0.1937 0.74500012 4287268553
-0.098359063 -0.19317999 0.74299997 4288060618
-0.096943811 -0.19317999 0.74299997 4288918209
-0.095400013 -0.19292 0.74199998 4289111986
-0.093986668 -0.19292 0.74199998 4289306548
-0.09232381 -0.19239999 0.74000001 4289240752
-0.090422861 -0.19136 0.73600012 4289109681
-0.088779047 -0.19084001 0.73400003 4289043635
-0.087380953 -0.19084001 0.73400003 4288912043
-0.085748583 -0.19032 0.73200011 4288714148
-0.084008567 -0.18954 0.72899997 4288516003
-0.081146657 -0.18616 0.71600002 4288252833
-0.079782858 -0.18616 0.71600002 4287989149
-0.078419052 -0.18616 0.71600002 4287595164
-0.077055238 -0.18616 0.71600002 4287266733
-0.075480007 -0.18564001 0.71399999 4289506748
-0.07412 -0.18564001 0.71399999 4291746785
-0.072760001 -0.18564001 0.71399999 4291882238
-0.071599998 -0.18616 0.71600002 4292002027
-0.070236191 -0.18616 0.71600002 4287601887
-0.068872377 -0.18616 0.71600002 4283269605
-0.067508571 -0.18616 0.71600002 4283730160
-0.066514291 -0.18719999 0.72000003 4284256236
-0.065052383 -0.18694 0.71899998 4284124648
-0.063682862 -0.18694 0.71899998 4283993574
-0.062313329 -0.18694 0.71899998 4283993317
-0.06102857 -0.18719999 0.72000003 4284058850
-0.059657149 -0.18719999 0.72000003 4283993056
-0.058285709 -0.18719999 0.72000003 4283993055
-0.05707239 -0.18772 0.72200012 4283796190
-0.05577429 -0.18798 0.72299999 4283664863
-0.054547619 -0.1885 0.72500002 4283139552
-0.053166669 -0.1885 0.72500002 4282615004
-0.05185714 -0.18876 0.72600001 4282481625
-0.05047429 -0.18876 0.72600001 4282349523
-0.049091429 -0.18876 0.72600001 4282348494
-0.047708571 -0.18876 0.72600001 4282282182
-0.046453342 -0.18928 0.72799999 4283198142
-0.04506667 -0.18928 0.72799999 4284114370
-0.043740001 -0.18954 0.72899997 4284640198
-0.04246762 -0.19006 0.73100001 4285230021
-0.041075241 -0.19006 0.73100001 4285755842
-0.03973715 -0.19032 0.73200011 4286280405
-0.03834286 -0.19032 0.73200011 4286549991
-0.036948569 -0.19032 0.73200011 4286883803
-0.03565143 -0.19084001 0.73400003 4288132302
-0.034253329 -0.19084001 0.73400003 4289320664
-0.032944761 -0.19136 0.73600012 4289516518
-0.03154286 -0.19136 0.73600012 4289714920
-0.030181911 -0.19162001 0.73699999 4289909739
-0.0287781 -0.19162001 0.73699999 4290172124
-0.02737429 -0.19162001 0.73699999 4289970383
-0.026040951 -0.19214 0.73900002 4289769954
-0.024633329 -0.19214 0.73900002 4289373943
-0.023225719 -0.19214 0.73900002 4288975834
-0.021847621 -0.19239999 0.74000001 4288515775
-0.02049333 -0.19292 0.74199998 4288053432
-0.01908 -0.19292 0.74199998 4287531438
-0.0177381 -0.1937 0.74500012 4287008166
-0.01631905 -0.1937 0.74500012 4286810271
-0.0149 -0.1937 0.74500012 4286676638
-0.01351714 -0.19422001 0.74699998 4286611869
-0.01211048 -0.19448 0.74800003 4286547607
-0.01068571 -0.19448 0.74800003 4286678678
-0.0092857154 -0.19499999 0.75000012 4286809750
-0.0078780958 -0.19552 0.75199997 4286875289
-0.0064457138 -0.19552 0.75199997 4287006617
-0.00502 -0.19577999 0.75300002 4287006610
-0.0035952381 -0.1963 0.75500011 4286941078
-0.0021599999 -0.19656 0.75599998 4286809500
-0.00072000001 -0.19656 0.75599998 4286678429
0.00072000001 -0.19656 0.75599998 4286678165
0.0021714291 -0.19760001 0.76000011 4286743447
0.003619048 -0.19760001 0.76000011 4286743440
0.0050666672 -0.19760001 0.76000011 4286743697
0.0065142862 -0.19760001 0.76000011 4285956755
0.0079409527 -0.19708 0.75800002 4285164127
0.0093847616 -0.19708 0.75800002 4284630829
-0.1301371 -0.19924951 0.77200001 4285029984
-0.1283333 -0.1987333 0.76999998 4284898405
-0.1265371 -0.1982172 0.76800001 4284767330
-0.1249114 -0.1979591 0.76700002 4284636000
-0.1231286 -0.1974429 0.76499999 4284570977
-0.1216714 -0.1974429 0.76499999 4284432738
-0.1199 -0.1969267 0.76300001 4284300637
-0.1181362 -0.19641051 0.76099998 4284496473
-0.1162267 -0.1956362 0.75800002 4284698211
-0.11448 -0.19512001 0.75599998 4284769645
-0.1128905 -0.1948619 0.75500011 4284835187
-0.1111571 -0.1943457 0.75300002 4284900984
-0.1097229 -0.1943457 0.75300002 4285032313
-0.1081448 -0.19408759 0.75199997 4285033081
-0.1064286 -0.1935714 0.75000012 4285098621
-0.10458 -0.1927972 0.74699998 4285229953
-0.102881 -0.19228099 0.74500012 4285361043
-0.1014619 -0.19228099 0.74500012 4285164453
-0.099774294 -0.1917648 0.74299997 4284971685
-0.098359063 -0.1917648 0.74299997 4286484137
-0.096813343 -0.1915067 0.74199998 4287994808
-0.095142864 -0.19099049 0.74000001 4288850628
-0.093606673 -0.1907324 0.73900002 4289700797
-0.09194953 -0.1902162 0.73699999 4289441723
-0.090177149 -0.1894419 0.73400003 4289242807
-0.088779047 -0.1894419 0.73400003 4289372601
-0.087142862 -0.1889257 0.73200011 4289503666
-0.08563143 -0.1886676 0.73100001 4289372594
-0.084008567 -0.1881514 0.72899997 4289240495
-0.082620002 -0.1881514 0.72899997 4289175213
-0.079894282 -0.1850543 0.71700001 4289107875
-0.078419052 -0.1847962 0.71600002 4288648865
-0.077055238 -0.1847962 0.71600002 4288188842
-0.075480007 -0.18427999 0.71399999 4288712878
-0.07412 -0.18427999 0.71399999 4289315540
-0.072760001 -0.18427999 0.71399999 4291559166
-0.071599998 -0.1847962 0.71600002 4293840615
-0.070236191 -0.1847962 0.71600002 4288260568
-0.068872377 -0.1847962 0.71600002 4282745309
-0.067508571 -0.1847962 0.71600002 4283400932
-0.066421911 -0.18557049 0.71899998 4284057828
-0.064871423 -0.1850543 0.71700001 4283927012
-0.063682862 -0.18557049 0.71899998 4283861730
-0.062313329 -0.18557049 0.71899998 4283862241
-0.06102857 -0.1858286 0.72000003 4283927008
-0.059657149 -0.1858286 0.72000003 4283926751
-0.058285709 -0.1858286 0.72000003 4283926747
-0.05707239 -0.1863448 0.72200012 4283664855
-0.055697151 -0.1863448 0.72200012 4283399890
-0.054397151 -0.18660291 0.72299999 4282411213
-0.053166669 -0.1871191 0.72500002 4281427920
-0.051785711 -0.1871191 0.72500002 4281230547
-0.050404761 -0.1871191 0.72500002 4281034701
-0.049091429 -0.1873771 0.72600001 4280901576
-0.047708571 -0.1873771 0.72600001 4280836044
-0.046453342 -0.1878933 0.72799999 4283195088
-0.04506667 -0.1878933 0.72799999 4285563085
-0.043740001 -0.1881514 0.72899997 4287270608
-0.042351428 -0.1881514 0.72899997 4289045462
-0.041075241 -0.1886676 0.73100001 4290362583
-0.039682861 -0.1886676 0.73100001 4291674845
-0.03834286 -0.1889257 0.73200011 4291944159
-0.036948569 -0.1889257 0.73200011 4292264405
-0.03565143 -0.1894419 0.73400003 4291875280
-0.034253329 -0.1894419 0.73400003 4291545565
-0.032855239 -0.1894419 0.73400003 4290430948
-0.03154286 -0.1899581 0.73600012 4289312471
-0.030140961 -0.1899581 0.73600012 4288785360
-0.0287781 -0.1902162 0.73699999 4288258499
-0.02737429 -0.1902162 0.73699999 4287666106
-0.026040951 -0.1907324 0.73900002 4287141057
-0.024633329 -0.1907324 0.73900002 4286943433
-0.023225719 -0.1907324 0.73900002 4286810556
-0.021847621 -0.19099049 0.74000001 4286742698
-0.02049333 -0.1915067 0.74199998 4286677158
-0.019105719 -0.1917648 0.74299997 4286742947
-0.0177381 -0.19228099 0.74500012 4286874012
-0.01631905 -0.19228099 0.74500012 4286808480
-0.0149 -0.19228099 0.74500012 4286743190
-0.01351714 -0.1927972 0.74699998 4286743704
-0.01211048 -0.1930552 0.74800003 4286810007
-0.01068571 -0.1930552 0.74800003 4286875803
-0.0092857154 -0.1935714 0.75000012 4286941335
-0.0078780958 -0.19408759 0.75199997 4287006874
-0.0064457138 -0.19408759 0.75199997 4287072149
-0.00502 -0.1943457 0.75300002 4286942348
-0.0035952381 -0.1948619 0.75500011 4286875018
-0.0021571431 -0.1948619 0.75500011 4286678158
-0.00072000001 -0.19512001 0.75599998 4286546829
0.00072000001 -0.19512001 0.75599998 4286546829
0.0021714291 -0.1961524 0.76000011 4286546316
0.003619048 -0.1961524 0.76000011 4286480527
0.0050733341 -0.19641051 0.76099998 4286480783
0.006522858 -0.19641051 0.76099998 4285891216
0.0079619056 -0.1961524 0.76000011 4285358432
0.0094095254 -0.1961524 0.76000011 4284693553
-0.1283333 -0.1972667 0.76999998 4285029475
-0.1265371 -0.19675431 0.76800001 4284833120
-0.1249114 -0.1964981 0.76700002 4284702046
-0.1234505 -0.1964981 0.76700002 4284636505
-0.1216714 -0.1959857 0.76499999 4284432725
-0.1202143 -0.1959857 0.76499999 4284298053
-0.1184467 -0.1954733 0.76300001 4284429365
-0.1165333 -0.1947048 0.76000011 4284560720
-0.1147829 -0.19419239 0.75800002 4284565612
-0.11304 -0.19368 0.75599998 4284636530
-0.1111571 -0.1929114 0.75300002 4284768121
-0.1095771 -0.1926553 0.75199997 4284900985
-0.1081448 -0.1926553 0.75199997 4284967289
-0.1061448 -0.1916305 0.74800003 4285099130
-0.10458 -0.1913743 0.74699998 4285164668
-0.102881 -0.1908619 0.74500012 4285230209
-0.1011895 -0.1903495 0.74299997 4285164423
-0.099774294 -0.1903495 0.74299997 4285098884
-0.098226666 -0.19009329 0.74199998 4285823108
-0.096552387 -0.1895809 0.74000001 4286546344
-0.095142864 -0.1895809 0.74000001 4287074518
-0.093353339 -0.1888124 0.73699999 4287601608
-0.091575243 -0.1880438 0.73400003 4288390084
-0.090177149 -0.1880438 0.73400003 4289178560
-0.088537149 -0.1875314 0.73200011 4289505464
-0.087142862 -0.1875314 0.73200011 4289766586
-0.08563143 -0.1872752 0.73100001 4289569726
-0.084008567 -0.1867629 0.72899997 4289306042
-0.082620002 -0.1867629 0.72899997 4289306035
-0.081119999 -0.1865067 0.72799999 4289306027
-0.078528583 -0.1836886 0.71700001 4288977311
-0.077055238 -0.1834324 0.71600002 4288648609
-0.075480007 -0.18291999 0.71399999 4288780451
-0.07412 -0.18291999 0.71399999 4288914640
-0.072760001 -0.18291999 0.71399999 4290956026
-0.071599998 -0.1834324 0.71600002 4293056998
-0.07004001 -0.18291999 0.71399999 4289575378
-0.068872377 -0.1834324 0.71600002 4286086100
-0.067508571 -0.1834324 0.71600002 4284645336
-0.066237137 -0.1836886 0.71700001 4283271132
-0.064871423 -0.1836886 0.71700001 4283271136
-0.063682862 -0.184201 0.71899998 4283271135
-0.062313329 -0.184201 0.71899998 4283074014
-0.06102857 -0.1844572 0.72000003 4282877406
-0.059657149 -0.1844572 0.72000003 4282877150
-0.058285709 -0.1844572 0.72000003 4282877143
-0.05707239 -0.1849695 0.72200012 4283202768
-0.055697151 -0.1849695 0.72200012 4283595205
-0.054321911 -0.1849695 0.72200012 4284117179
-0.05302 -0.1852257 0.72299999 4284702660
-0.051785711 -0.1857381 0.72500002 4285164493
-0.050404761 -0.1857381 0.72500002 4285623750
-0.049023811 -0.1857381 0.72500002 4285957062
-0.047708571 -0.1859943 0.72600001 4286353616
-0.046325721 -0.1859943 0.72600001 4287408095
-0.04494286 -0.1859943 0.72600001 4288530654
-0.043680001 -0.1865067 0.72799999 4289186010
-0.042351428 -0.1867629 0.72899997 4289845220
-0.041075241 -0.1872752 0.73100001 4289974507
-0.039682861 -0.1872752 0.73100001 4290107106
-0.03834286 -0.1875314 0.73200011 4289970647
-0.036948569 -0.1875314 0.73200011 4289835986
-0.03565143 -0.1880438 0.73400003 4289505749
-0.034253329 -0.1880438 0.73400003 4289240795
-0.032855239 -0.1880438 0.73400003 4288648673
-0.03154286 -0.18855619 0.73600012 4288053960
-0.030140961 -0.18855619 0.73600012 4287726000
-0.0287781 -0.1888124 0.73699999 4287460525
-0.02744857 -0.1893248 0.73900002 4287201957
-0.026040951 -0.1893248 0.73900002 4287006110
-0.024633329 -0.1893248 0.73900002 4286940571
-0.02325714 -0.1895809 0.74000001 4286874268
-0.02190667 -0.19009329 0.74199998 4286743197
-0.02049333 -0.19009329 0.74199998 4286677915
-0.019105719 -0.1903495 0.74299997 4286808979
-0.0177381 -0.1908619 0.74500012 4286940307
-0.01631905 -0.1908619 0.74500012 4286874775
-0.01494 -0.1913743 0.74699998 4286809236
-0.01353524 -0.1916305 0.74800003 4286809743
-0.01211048 -0.1916305 0.74800003 4286745238
-0.01068571 -0.1916305 0.74800003 4286613660
-0.0092857154 -0.1921429 0.75000012 4286548121
-0.0078780958 -0.1926553 0.75199997 4286154643
-0.0064457138 -0.1926553 0.75199997 4285826961
-0.00502 -0.1929114 0.75300002 4285628296
-0.0035952381 -0.19342379 0.75500011 4285496703
-0.0021599999 -0.19368 0.75599998 4285297275
-0.00072000001 -0.19368 0.75599998 4285164927
0.0007219048 -0.19419239 0.75800002 4285955970
0.0021714291 -0.1947048 0.76000011 4286808458
0.003619048 -0.1947048 0.76000011 4286546059
0.0050733341 -0.194961 0.76099998 4286349455
0.006522858 -0.194961 0.76099998 4285954957
0.0079619056 -0.1947048 0.76000011 4285553508
0.0094095254 -0.1947048 0.76000011 4284628790
-0.12719619 -0.1963086 0.77200001 4284964192
-0.12540001 -0.19580001 0.76999998 4284833632
-0.1236114 -0.1952914 0.76800001 4284701272
-0.1219895 -0.1950371 0.76700002 4284498513
-0.1205286 -0.1950371 0.76700002 4284297792
-0.1187572 -0.19452859 0.76499999 4284363055
-0.1166867 -0.1935114 0.76099998 4284428090
-0.1147829 -0.19274861 0.75800002 4284427078
-0.11304 -0.19224 0.75599998 4284432206
-0.1114524 -0.1919857 0.75500011 4284567894
-0.1097229 -0.19147711 0.75300002 4284766827
-0.1078571 -0.1907143 0.75000012 4284901759
-0.1061448 -0.19020569 0.74800003 4285098364
-0.10458 -0.1899514 0.74699998 4285098616
-0.102881 -0.1894429 0.74500012 4285164669
-0.1011895 -0.1889343 0.74299997 4285229955
-0.099639997 -0.18867999 0.74199998 4285295492
-0.098226666 -0.18867999 0.74199998 4285229957
-0.096552387 -0.1881714 0.74000001 4285167001
-0.095014282 -0.1879171 0.73900002 4285300397
-0.093353339 -0.1874086 0.73699999 4285499572
-0.091575243 -0.1866457 0.73400003 4287338938
-0.090177149 -0.1866457 0.73400003 4289176512
-0.088537149 -0.1861372 0.73200011 4289640638
-0.087142862 -0.1861372 0.73200011 4290095559
-0.08563143 -0.1858829 0.73100001 4289769669
-0.084008567 -0.1853743 0.72899997 4289439939
-0.082506672 -0.18512 0.72799999 4289439161
-0.081119999 -0.18512 0.72799999 4289503416
-0.078857154 -0.18308569 0.72000003 4289306798
-0.077162862 -0.1823228 0.71700001 4289174699
-0.075691432 -0.1820686 0.71600002 4288846768
-0.074327618 -0.1820686 0.71600002 4288520392
-0.072760001 -0.18155999 0.71399999 4290427102
-0.071599998 -0.1820686 0.71600002 4292333277
-0.07004001 -0.18155999 0.71399999 4290895075
-0.068872377 -0.1820686 0.71600002 4289437141
-0.067508571 -0.1820686 0.71600002 4285954764
-0.066237137 -0.1823228 0.71700001 4282481618
-0.064871423 -0.1823228 0.71700001 4282613208
-0.063682862 -0.18283141 0.71899998 4282744023
-0.062313329 -0.18283141 0.71899998 4282285013
-0.06102857 -0.18308569 0.72000003 4281826007
-0.059657149 -0.18308569 0.72000003 4281824216
-0.058285709 -0.18308569 0.72000003 4281892565
-0.05707239 -0.1835943 0.72200012 4282803666
-0.055697151 -0.1835943 0.72200012 4283793353
-0.054397151 -0.1838486 0.72299999 4285891523
-0.05302 -0.1838486 0.72299999 4288060104
-0.051642861 -0.1838486 0.72299999 4289115347
-0.050404761 -0.1843572 0.72500002 4290230741
-0.049023811 -0.1843572 0.72500002 4291086797
-0.047708571 -0.1846114 0.72600001 4291938522
-0.046325721 -0.1846114 0.72600001 4291681760
-0.04494286 -0.1846114 0.72600001 4291479768
-0.043680001 -0.18512 0.72799999 4291021272
-0.042351428 -0.1853743 0.72899997 4290625240
-0.041075241 -0.1858829 0.73100001 4289575128
-0.039682861 -0.1858829 0.73100001 4288588486
-0.03834286 -0.1861372 0.73200011 4287993530
-0.036948569 -0.1861372 0.73200011 4287402935
-0.03555429 -0.1861372 0.73200011 4287138745
-0.034253329 -0.1866457 0.73400003 4286941371
-0.032855239 -0.1866457 0.73400003 4286874047
-0.03154286 -0.18715429 0.73600012 4286808501
-0.030140961 -0.18715429 0.73600012 4286742947
-0.0287781 -0.1874086 0.73699999 4286677158
-0.02744857 -0.1879171 0.73900002 4286742691
-0.026040951 -0.1879171 0.73900002 4286874782
-0.024666671 -0.1881714 0.74000001 4286875032
-0.02325714 -0.1881714 0.74000001 4286940571
-0.02190667 -0.18867999 0.74199998 4286809757
-0.02052095 -0.1889343 0.74299997 4286744218
-0.019105719 -0.1889343 0.74299997 4286875289
-0.0177381 -0.1894429 0.74500012 4287072149
-0.016362861 -0.1899514 0.74699998 4287007631
-0.01496 -0.19020569 0.74800003 4286940814
-0.01353524 -0.19020569 0.74800003 4286810256
-0.01214286 -0.1907143 0.75000012 4286743176
-0.01071429 -0.1907143 0.75000012 4286414973
-0.0092857154 -0.1907143 0.75000012 4286150261
-0.0078780958 -0.19122291 0.75199997 4285361514
-0.0064457138 -0.19122291 0.75199997 4284573279
-0.00502 -0.19147711 0.75300002 4284373845
-0.0035952381 -0.1919857 0.75500011 4284176970
-0.0021571431 -0.1919857 0.75500011 4283979327
-0.00071904768 -0.1919857 0.75500011 4283786337
0.00072000001 -0.19224 0.75599998 4285431685
0.0021599999 -0.19224 0.75599998 4287070344
0.003619048 -0.1932572 0.76000011 4286676880
0.0050733341 -0.1935114 0.76099998 4286283152
0.006522858 -0.1935114 0.76099998 4286020232
0.0079619056 -0.1932572 0.76000011 4285817185
0.0094095254 -0.1932572 0.76000011 4284562998
0.01085714 -0.1932572 0.76000011 4283386432
-0.12719619 -0.19483811 0.77200001 4285029984
-0.1257257 -0.19483811 0.77200001 4284833122
-0.1234505 -0.1935762 0.76700002 4284701272
-0.1219895 -0.1935762 0.76700002 4284369486
-0.1205286 -0.1935762 0.76700002 4284101180
-0.1187572 -0.1930714 0.76499999 4284231466
-0.1166867 -0.1920619 0.76099998 4284361765
-0.1150857 -0.19180951 0.76000011 4284361504
-0.11304 -0.1908 0.75599998 4284360490
-0.1114524 -0.1905476 0.75500011 4284495924
-0.1097229 -0.1900429 0.75300002 4284565085
-0.1078571 -0.1892857 0.75000012 4284765062
-0.1061448 -0.1887809 0.74800003 4284900733
-0.10458 -0.1885286 0.74699998 4285032053
-0.102881 -0.18802381 0.74500012 4285099130
-0.1011895 -0.187519 0.74299997 4285296255
-0.099639997 -0.18726671 0.74199998 4285427589
-0.097961903 -0.1867619 0.74000001 4285361543
-0.096552387 -0.1867619 0.74000001 4285230215
-0.095014282 -0.1865095 0.73900002 4285361543
-0.093353339 -0.1860048 0.73699999 4285427353
-0.091575243 -0.1852476 0.73400003 4286349748
-0.089931443 -0.1847429 0.73200011 4287271871
-0.088537149 -0.1847429 0.73200011 4287798733
-0.08702381 -0.1844905 0.73100001 4288260048
-0.085397147 -0.1839857 0.72899997 4288850900
-0.084008567 -0.1839857 0.72899997 4289506763
-0.082506672 -0.1837333 0.72799999 4289767870
-0.081119999 -0.1837333 0.72799999 4290093504
-0.079076193 -0.1822191 0.72200012 4289700290
-0.077378087 -0.1814619 0.71899998 4289372858
-0.075691432 -0.1807048 0.71600002 4289175220
-0.074327618 -0.1807048 0.71600002 4288976062
-0.072760001 -0.1802 0.71399999 4290032068
-0.071599998 -0.1807048 0.71600002 4291152094
-0.07004001 -0.1802 0.71399999 4290959858
-0.068680003 -0.1802 0.71399999 4290752985
-0.067508571 -0.1807048 0.71600002 4286283202
-0.066237137 -0.18095709 0.71700001 4281820105
-0.064871423 -0.18095709 0.71700001 4283266257
-0.063505717 -0.18095709 0.71700001 4284775119
-0.062313329 -0.1814619 0.71899998 4285168333
-0.060943808 -0.1814619 0.71899998 4285626833
-0.059657149 -0.1817143 0.72000003 4286088661
-0.058285709 -0.1817143 0.72000003 4286614224
-0.056914289 -0.1817143 0.72000003 4287209172
-0.055697151 -0.1822191 0.72200012 4287805134
-0.054397151 -0.18247139 0.72299999 4288723653
-0.05302 -0.18247139 0.72299999 4289712593
-0.051642861 -0.18247139 0.72299999 4289777633
-0.050404761 -0.1829762 0.72500002 4289910495
-0.049023811 -0.1829762 0.72500002 4290037727
-0.047708571 -0.1832286 0.72600001 4290234081
-0.046325721 -0.1832286 0.72600001 4289770975
-0.04494286 -0.1832286 0.72600001 4289371609
-0.043680001 -0.1837333 0.72799999 4289043150
-0.042351428 -0.1839857 0.72899997 4288778695
-0.04096286 -0.1839857 0.72899997 4288253889
-0.039682861 -0.1844905 0.73100001 4287729069
-0.038290478 -0.1844905 0.73100001 4287466912
-0.036948569 -0.1847429 0.73200011 4287204769
-0.03555429 -0.1847429 0.73200011 4287071899
-0.034253329 -0.1852476 0.73400003 4286874268
-0.032855239 -0.1852476 0.73400003 4286874525
-0.031457141 -0.1852476 0.73400003 4286809757
-0.030140961 -0.18575241 0.73600012 4286874782
-0.0287781 -0.1860048 0.73699999 4286940314
-0.02744857 -0.1865095 0.73900002 4287005846
-0.026040951 -0.1865095 0.73900002 4287136918
-0.024666671 -0.1867619 0.74000001 4287137175
-0.02325714 -0.1867619 0.74000001 4287137439
-0.02190667 -0.18726671 0.74199998 4286875553
-0.02052095 -0.187519 0.74299997 4286613917
-0.019157151 -0.18802381 0.74500012 4286417050
-0.0177381 -0.18802381 0.74500012 4286220946
-0.016362861 -0.1885286 0.74699998 4285890959
-0.01494 -0.1885286 0.74699998 4285562250
-0.01353524 -0.1887809 0.74800003 4285297293
-0.01211048 -0.1887809 0.74800003 4285098617
-0.01071429 -0.1892857 0.75000012 4284966758
-0.0092857154 -0.1892857 0.75000012 4284835410
-0.0078780958 -0.1897905 0.75199997 4284571199
-0.0064457138 -0.1897905 0.75199997 4284306480
-0.00502 -0.1900429 0.75300002 4284241186
-0.0035952381 -0.1905476 0.75500011 4284110099
-0.0021599999 -0.1908 0.75599998 4283913476
-0.00072000001 -0.1908 0.75599998 4283782467
0.0007219048 -0.1913048 0.75800002 4285299843
0.0021714291 -0.19180951 0.76000011 4286873997
0.0036238099 -0.1920619 0.76099998 4286611098
0.0050733341 -0.1920619 0.76099998 4286283152
0.00654 -0.19256669 0.76300001 4286020232
0.0079723811 -0.1920619 0.76099998 4285753950
0.0094219064 -0.1920619 0.76099998 4284829750
0.01087143 -0.1920619 0.76099998 4283911742
0.01232095 -0.1920619 0.76099998 4283846471
-0.12719619 -0.1933676 0.77200001 4285095526
-0.1257257 -0.1933676 0.77200001 4284898669
-0.1236114 -0.19236571 0.76800001 4284701274
-0.1221486 -0.19236571 0.76800001 4284307015
-0.1205286 -0.1921152 0.76700002 4283972142
-0.1190676 -0.1921152 0.76700002 4284165397
-0.1173 -0.1916143 0.76499999 4284361751
-0.1150857 -0.1903619 0.76000011 4284361752
-0.1133391 -0.189861 0.75800002 4284360737
-0.1116 -0.18935999 0.75599998 4284360490
-0.1100143 -0.1891095 0.75500011 4284428855
-0.1081448 -0.1883581 0.75199997 4284560708
-0.1061448 -0.1873562 0.74800003 4284762205
-0.10458 -0.1871057 0.74699998 4284898678
-0.102881 -0.1866048 0.74500012 4285097336
-0.1011895 -0.18610381 0.74299997 4285363320
-0.099639997 -0.1858533 0.74199998 4285624192
-0.097961903 -0.1853524 0.74000001 4285493378
-0.096421897 -0.1851019 0.73900002 4285361536
-0.094757147 -0.18460099 0.73699999 4285361536
-0.093226671 -0.18435051 0.73600012 4285427089
-0.091325723 -0.1833486 0.73200011 4285426590
-0.089931443 -0.1833486 0.73200011 4285430436
-0.088416189 -0.18309809 0.73100001 4285957811
-0.08702381 -0.18309809 0.73100001 4286485436
-0.085397147 -0.1825971 0.72899997 4287998668
-0.083893336 -0.1823467 0.72799999 4289571531
-0.082506672 -0.1823467 0.72799999 4290098885
-0.080897138 -0.18184569 0.72600001 4290687168
-0.079076193 -0.1808438 0.72200012 4290096830
-0.07748571 -0.1803429 0.72000003 4289571260
-0.075691432 -0.1793409 0.71600002 4289505214
-0.074327618 -0.1793409 0.71600002 4289504957
-0.072760001 -0.17884 0.71399999 4289703359
-0.071599998 -0.1793409 0.71600002 4289969626
-0.07004001 -0.17884 0.71399999 4291026924
-0.068680003 -0.17884 0.71399999 4292131807
-0.067508571 -0.1793409 0.71600002 4286611412
-0.066237137 -0.1795914 0.71700001 4281170129
-0.064780958 -0.1793409 0.71600002 4283986383
-0.063505717 -0.1795914 0.71700001 4286877644
-0.062139999 -0.1795914 0.71700001 4288125900
-0.060943808 -0.18009239 0.71899998 4289440467
-0.059657149 -0.1803429 0.72000003 4290428629
-0.058285709 -0.1803429 0.72000003 4291412945
-0.056914289 -0.1803429 0.72000003 4291613651
-0.05554286 -0.1803429 0.72000003 4291870156
-0.054321911 -0.1808438 0.72200012 4291610055
-0.052946672 -0.1808438 0.72200012 4291347926
-0.051642861 -0.1810943 0.72299999 4290496730
-0.050265718 -0.1810943 0.72299999 4289640660
-0.048888579 -0.1810943 0.72299999 4289048274
-0.047642861 -0.18159521 0.72500002 4288521419
-0.04626191 -0.18159521 0.72500002 4287929026
-0.04494286 -0.18184569 0.72600001 4287337403
-0.043680001 -0.1823467 0.72799999 4287139002
-0.042293329 -0.1823467 0.72799999 4286941107
-0.04096286 -0.1825971 0.72899997 4286939822
-0.039574292 -0.1825971 0.72899997 4286940578
-0.038290478 -0.18309809 0.73100001 4287006624
-0.036898099 -0.18309809 0.73100001 4287071643
-0.03555429 -0.1833486 0.73200011 4286939801
-0.034159999 -0.1833486 0.73200011 4286874261
-0.032855239 -0.1838495 0.73400003 4286875025
-0.031457141 -0.1838495 0.73400003 4286875546
-0.030140961 -0.18435051 0.73600012 4287072413
-0.02873905 -0.18435051 0.73600012 4287269017
-0.02744857 -0.1851019 0.73900002 4287334549
-0.02607619 -0.1853524 0.74000001 4287400595
-0.024666671 -0.1853524 0.74000001 4287336583
-0.023320001 -0.1858533 0.74199998 4287334534
-0.021936189 -0.18610381 0.74299997 4286941577
-0.02052095 -0.18610381 0.74299997 4286545031
-0.019157151 -0.1866048 0.74500012 4285953922
-0.017785709 -0.1871057 0.74699998 4285363306
-0.016362861 -0.1871057 0.74699998 4284772694
-0.01496 -0.1873562 0.74800003 4284179535
-0.01353524 -0.1873562 0.74800003 4283848009
-0.01214286 -0.1878572 0.75000012 4283520066
-0.01071429 -0.1878572 0.75000012 4283518780
-0.0093104756 -0.1883581 0.75199997 4283520057
-0.0078885714 -0.1886086 0.75300002 4283782198
-0.0064542862 -0.1886086 0.75300002 4284110124
-0.00502 -0.1886086 0.75300002 4284110627
-0.0035952381 -0.1891095 0.75500011 4284110358
-0.0021599999 -0.18935999 0.75599998 4283912969
-0.0007219048 -0.189861 0.75800002 4283782212
0.00072380959 -0.1903619 0.76000011 4285234303
0.0021742859 -0.19061241 0.76099998 4286741642
0.0036238099 -0.19061241 0.76099998 4286545038
0.0050733341 -0.19061241 0.76099998 4286348428
0.00654 -0.19111329 0.76300001 4286021766
0.0079723811 -0.19061241 0.76099998 4285688418
0.0094095254 -0.1903619 0.76000011 4285026876
0.0109 -0.19111329 0.76300001 4284436547
0.01235333 -0.19111329 0.76300001 4284240714
-0.1257257 -0.19189709 0.77200001 4284898681
-0.1239333 -0.19140001 0.76999998 4284701277
-0.1224667 -0.19140001 0.76999998 4284436801
-0.1206857 -0.1909029 0.76800001 4284170017
-0.1192229 -0.1909029 0.76800001 4284231681
-0.1173 -0.1901571 0.76499999 4284361737
-0.1152371 -0.1891629 0.76099998 4284295697
-0.1136381 -0.1889143 0.76000011 4284295448
-0.1118952 -0.18841711 0.75800002 4284361248
-0.1100143 -0.18767139 0.75500011 4284427537
-0.1082886 -0.18717431 0.75300002 4284493058
-0.1064286 -0.18642861 0.75000012 4284623165
-0.10472 -0.1859314 0.74800003 4284695416
-0.102881 -0.1851857 0.74500012 4284767094
-0.1014619 -0.1851857 0.74500012 4284834165
-0.099639997 -0.18444 0.74199998 4284903031
-0.097961903 -0.1839429 0.74000001 4285099642
-0.096421897 -0.1836943 0.73900002 4285296251
-0.09462858 -0.1829486 0.73600012 4285295997
-0.093226671 -0.1829486 0.73600012 4285295999
-0.091200963 -0.1817057 0.73100001 4285295490
-0.089808583 -0.1817057 0.73100001 4285360009
-0.088174291 -0.1812086 0.72899997 4285624471
-0.086785719 -0.1812086 0.72899997 4285888176
-0.085280009 -0.18096 0.72799999 4286547657
-0.083893336 -0.18096 0.72799999 4287206603
-0.082280003 -0.1804629 0.72600001 4288259284
-0.08056286 -0.1797172 0.72299999 4289246918
-0.079076193 -0.1794686 0.72200012 4289508019
-0.07748571 -0.17897139 0.72000003 4289834430
-0.075797141 -0.1782257 0.71700001 4289899456
-0.074327618 -0.1779771 0.71600002 4289963717
-0.072963811 -0.1779771 0.71600002 4289964231
-0.071599998 -0.1779771 0.71600002 4289964759
-0.07004001 -0.17748 0.71399999 4290692070
-0.068680003 -0.17748 0.71399999 4291480810
-0.067508571 -0.1779771 0.71600002 4288917224
-0.066144757 -0.1779771 0.71600002 4286420439
-0.064599998 -0.17748 0.71399999 4287801551
-0.063417137 -0.1779771 0.71600002 4289250764
-0.062139999 -0.1782257 0.71700001 4289775314
-0.060774289 -0.1782257 0.71700001 4290368471
-0.059408572 -0.1782257 0.71700001 4290367200
-0.058204759 -0.1787229 0.71899998 4290369491
-0.056835242 -0.1787229 0.71899998 4290233803
-0.05554286 -0.17897139 0.72000003 4290100169
-0.054321911 -0.1794686 0.72200012 4289638605
-0.05302 -0.1797172 0.72299999 4289176533
-0.051642861 -0.1797172 0.72299999 4288715482
-0.050265718 -0.1797172 0.72299999 4288252876
-0.049023811 -0.1802143 0.72500002 4287924930
-0.047642861 -0.1802143 0.72500002 4287596727
-0.046325721 -0.1804629 0.72600001 4287400616
-0.04494286 -0.1804629 0.72600001 4287204255
-0.043680001 -0.18096 0.72799999 4287071899
-0.042293329 -0.18096 0.72799999 4286939544
-0.04096286 -0.1812086 0.72899997 4286939801
-0.039682861 -0.1817057 0.73100001 4286940057
-0.038290478 -0.1817057 0.73100001 4286940057
-0.036948569 -0.18195429 0.73200011 4287005590
-0.03555429 -0.18195429 0.73200011 4286874261
-0.034253329 -0.1824514 0.73400003 4286808722
-0.032855239 -0.1824514 0.73400003 4286809229
-0.03154286 -0.1829486 0.73600012 4286810770
-0.030140961 -0.1829486 0.73600012 4286613403
-0.0287781 -0.1831972 0.73699999 4286416793
-0.02744857 -0.1836943 0.73900002 4285630358
-0.02607619 -0.1839429 0.74000001 4284910728
-0.024733329 -0.18444 0.74199998 4284446588
-0.023351431 -0.1846886 0.74299997 4283986041
-0.021936189 -0.1846886 0.74299997 4283983222
-0.02057619 -0.1851857 0.74500012 4283980654
-0.019208569 -0.18568289 0.74699998 4284046950
-0.017809531 -0.1859314 0.74800003 4284113219
-0.01638476 -0.1859314 0.74800003 4283981089
-0.015 -0.18642861 0.75000012 4283847187
-0.01360762 -0.18692569 0.75199997 4283650565
-0.01217524 -0.18692569 0.75199997 4283454220
-0.01074286 -0.18692569 0.75199997 4283519763
-0.0093228566 -0.18717431 0.75300002 4283651360
-0.0078885714 -0.18717431 0.75300002 4283848237
-0.0064542862 -0.18717431 0.75300002 4284045353
-0.0050333338 -0.18767139 0.75500011 4284045605
-0.0035952381 -0.18767139 0.75500011 4284046105
-0.002165715 -0.18841711 0.75800002 4283847438
-0.00072380959 -0.1889143 0.76000011 4283650629
0.00072380959 -0.1889143 0.76000011 4285167740
0.0021742859 -0.1891629 0.76099998 4286675324
0.0036238099 -0.1891629 0.76099998 4286479492
0.0050866669 -0.18966 0.76300001 4286282375
0.0065571428 -0.1901571 0.76499999 4285824135
0.0080142869 -0.1901571 0.76499999 4285426533
0.0094466684 -0.18966 0.76300001 4284895554
0.0109 -0.18966 0.76300001 4284305223
0.01235333 -0.18966 0.76300001 4284175181
0.01380667 -0.18966 0.76300001 4284044108
-0.1285143 -0.19239999 0.77999997 4285094757
-0.1270286 -0.19239999 0.77999997 4284898670
-0.1244162 -0.1906734 0.77300012 4284766298
-0.1227848 -0.19042671 0.77200001 4284567623
-0.121 -0.1899333 0.76999998 4284432943
-0.1192229 -0.18944 0.76800001 4284363287
-0.1176067 -0.18919329 0.76700002 4284361236
-0.1150857 -0.1874667 0.76000011 4284294674
-0.1136381 -0.1874667 0.76000011 4284230167
-0.1118952 -0.1869733 0.75800002 4284296477
-0.1100143 -0.1862333 0.75500011 4284427538
-0.1082886 -0.18573999 0.75300002 4284427528
-0.1067124 -0.18549331 0.75199997 4284493094
-0.10472 -0.1845067 0.74800003 4284427589
-0.102881 -0.18376669 0.74500012 4284429383
-0.1014619 -0.18376669 0.74500012 4284299336
-0.099639997 -0.1830267 0.74199998 4284239719
-0.097961903 -0.18253329 0.74000001 4284705925
-0.096160963 -0.1817933 0.73699999 4285230210
-0.09462858 -0.1815467 0.73600012 4285232510
-0.092720009 -0.18055999 0.73200011 4285230975
-0.091200963 -0.1803133 0.73100001 4285230719
-0.089808583 -0.1803133 0.73100001 4285294981
-0.088174291 -0.17982 0.72899997 4285294220
-0.086666673 -0.1795733 0.72799999 4285361051
-0.085045718 -0.17907999 0.72600001 4285099174
-0.08366286 -0.17907999 0.72600001 4284907437
-0.082166657 -0.17883331 0.72500002 4286354101
-0.080451436 -0.1780933 0.72200012 4287865021
-0.079076193 -0.1780933 0.72200012 4288986053
-0.07748571 -0.1776 0.72000003 4290099149
-0.076008573 -0.17735329 0.71899998 4290230734
-0.074431427 -0.17686 0.71700001 4290424526
-0.072963811 -0.1766133 0.71600002 4290160585
-0.071599998 -0.1766133 0.71600002 4289964495
-0.07004001 -0.17612 0.71399999 4290427609
-0.068680003 -0.17612 0.71399999 4290888410
-0.067319997 -0.17612 0.71399999 4291286747
-0.066144757 -0.1766133 0.71600002 4291677399
-0.064599998 -0.17612 0.71399999 4291678156
-0.063417137 -0.1766133 0.71600002 4291677392
-0.062139999 -0.17686 0.71700001 4291481046
-0.060774289 -0.17686 0.71700001 4291282908
-0.059574291 -0.17735329 0.71899998 4290299613
-0.058204759 -0.17735329 0.71899998 4289312978
-0.056835242 -0.17735329 0.71899998 4288851913
-0.05554286 -0.1776 0.72000003 4288390591
-0.054321911 -0.1780933 0.72200012 4287668154
-0.052946672 -0.1780933 0.72200012 4287008444
-0.051642861 -0.17834 0.72299999 4286939836
-0.050265718 -0.17834 0.72299999 4286940593
-0.048888579 -0.17834 0.72299999 4286809257
-0.047708571 -0.17907999 0.72600001 4286744232
-0.046325721 -0.17907999 0.72600001 4286941349
-0.04494286 -0.17907999 0.72600001 4287137439
-0.043680001 -0.1795733 0.72799999 4287070365
-0.042351428 -0.17982 0.72899997 4287005340
-0.04096286 -0.17982 0.72899997 4287006617
-0.039682861 -0.1803133 0.73100001 4287006367
-0.03834286 -0.18055999 0.73200011 4286940828
-0.037049521 -0.1810533 0.73400003 4286940057
-0.03565143 -0.1810533 0.73400003 4286874768
-0.03434667 -0.1815467 0.73600012 4286809229
-0.032944761 -0.1815467 0.73600012 4286743690
-0.03154286 -0.1815467 0.73600012 4286742926
-0.030181911 -0.1817933 0.73699999 4286152845
-0.0287781 -0.1817933 0.73699999 4285557889
-0.02744857 -0.18228669 0.73900002 4283982713
-0.026146671 -0.1830267 0.74199998 4282468210
-0.024733329 -0.1830267 0.74199998 4281544299
-0.023351431 -0.1832733 0.74299997 4280629097
-0.021995241 -0.18376669 0.74500012 4281024102
-0.02057619 -0.18376669 0.74500012 4281484642
-0.019208569 -0.18426 0.74699998 4282142047
-0.01785714 -0.185 0.75000012 4282864454
-0.016428569 -0.185 0.75000012 4283193133
-0.01504 -0.18549331 0.75199997 4283519512
-0.01360762 -0.18549331 0.75199997 4283450371
-0.01217524 -0.18549331 0.75199997 4283453451
-0.01074286 -0.18549331 0.75199997 4283586068
-0.0093228566 -0.18573999 0.75300002 4283782941
-0.0078885714 -0.18573999 0.75300002 4283849254
-0.0064542862 -0.18573999 0.75300002 4283980324
-0.0050400002 -0.18648 0.75599998 4283980833
-0.0035999999 -0.18648 0.75599998 4283980311
-0.0021714291 -0.1874667 0.76000011 4283782156
-0.00072476192 -0.1877133 0.76099998 4283585092
0.00072476192 -0.1877133 0.76099998 4285102204
0.0021742859 -0.1877133 0.76099998 4286675588
