# .PCD v0.7 - Point Cloud Data file format
VERSION 0.7
FIELDS x y z rgb
SIZE 4 4 4 4
TYPE F F F U
COUNT 1 1 1 1
WIDTH 1199
HEIGHT 1
VIEWPOINT 0 0 0 1 0 0 0
POINTS 1199
DATA ascii
2.3822041 -3.6148417 23.888405 13949345
2.4577999 -3.6148417 23.888405 13949347
2.4955981 -3.6148417 23.888405 13883556
-1.0156438 -3.1029778 20.722471 13948057
-0.98285514 -3.1029778 20.722471 13882520
-0.82889855 -3.1408188 20.975183 14014108
-0.79571009 -3.1408188 20.975183 14079644
1.5249074 -3.4339619 22.932867 13816476
1.6039659 -3.528043 23.561165 13882268
1.8530314 -3.5770438 23.888405 14014624
2.0798197 -3.5770438 23.888405 13817500
2.1176176 -3.5770438 23.888405 13751964
2.1554158 -3.5770438 23.888405 14015135
2.1932137 -3.5770438 23.888405 13949343
2.2310119 -3.5770438 23.888405 13752220
2.2688098 -3.5770438 23.888405 13817757
2.306608 -3.5770438 23.888405 13883550
2.3122907 -3.528043 23.561165 13883550
2.349571 -3.528043 23.561165 13883551
-1.0484325 -3.070189 20.722471 13882263
-1.0156438 -3.070189 20.722471 13882263
-0.98285514 -3.070189 20.722471 13882263
-0.82889855 -3.1076303 20.975183 13948057
-0.79571009 -3.1076303 20.975183 14013850
1.4351848 -3.4435904 23.242771 13751452
1.4719613 -3.4435904 23.242771 13751452
1.5249074 -3.3976758 22.932867 13750938
1.5822906 -3.4435904 23.242771 13750681
1.6412461 -3.4907629 23.561165 13750682
1.6558436 -3.4435904 23.242771 13619351
1.9664255 -3.5392456 23.888405 13554327
2.0042236 -3.5392456 23.888405 13751451
2.0420215 -3.5392456 23.888405 13883037
2.0798197 -3.5392456 23.888405 13685914
2.1176176 -3.5392456 23.888405 13751451
2.1554158 -3.5392456 23.888405 13949598
2.1932137 -3.5392456 23.888405 14015134
2.2310119 -3.5392456 23.888405 13818012
2.2688098 -3.5392456 23.888405 13883549
2.2750106 -3.4907629 23.561165 13751964
2.3122907 -3.4907629 23.561165 13751965
2.349571 -3.4907629 23.561165 13751966
2.3868513 -3.4907629 23.561165 13751967
-1.0156438 -3.0374002 20.722471 13750677
-0.98285514 -3.0374002 20.722471 13816470
-0.79571009 -3.0744419 20.975183 13948056
1.3248553 -3.4068139 23.242771 14080171
1.4351848 -3.4068139 23.242771 13817250
1.4719613 -3.4068139 23.242771 13817250
1.5249074 -3.3613896 22.932867 13685407
1.5822906 -3.4068139 23.242771 13882270
1.6412461 -3.4534826 23.561165 13882270
1.6558436 -3.4068139 23.242771 13619609
1.9664255 -3.5014477 23.888405 13357461
2.0042236 -3.5014477 23.888405 13685913
2.0420215 -3.5014477 23.888405 13883037
2.0798197 -3.5014477 23.888405 13817499
2.1176176 -3.5014477 23.888405 13817499
2.1554158 -3.5014477 23.888405 14014878
2.1932137 -3.5014477 23.888405 13949085
2.2310119 -3.5014477 23.888405 13883292
2.2688098 -3.5014477 23.888405 13883292
2.2750106 -3.4534826 23.561165 13883036
2.3122907 -3.4534826 23.561165 13883293
2.349571 -3.4534826 23.561165 13817759
2.4241316 -3.4534826 23.561165 13817761
-0.98285514 -3.0046117 20.722471 13816470
1.1257601 -3.3251035 22.932867 14409393
1.1467561 -3.2813523 22.631119 14409395
1.1825647 -3.2813523 22.631119 14343602
1.3434768 -3.3251035 22.932867 13751726
1.5048428 -3.2813523 22.631119 13553571
1.7158066 -3.4162023 23.561165 14277800
1.7530869 -3.4162023 23.561165 14146213
1.9664255 -3.4636495 23.888405 13225876
2.0042236 -3.4636495 23.888405 13685657
2.0420215 -3.4636495 23.888405 14079901
2.0798197 -3.4636495 23.888405 14014108
2.1176176 -3.4636495 23.888405 13948315
2.1554158 -3.4636495 23.888405 13883292
2.1932137 -3.4636495 23.888405 13817499
2.2310119 -3.4636495 23.888405 13751706
2.2688098 -3.4636495 23.888405 13883292
2.2750106 -3.4162023 23.561165 13949085
2.3122907 -3.4162023 23.561165 13949085
2.349571 -3.4162023 23.561165 13883550
2.4241316 -3.4162023 23.561165 13817759
2.4614117 -3.4162023 23.561165 13751968
2.0042236 -3.4258516 23.888405 13422743
2.0420215 -3.4258516 23.888405 13882524
2.0798197 -3.4258516 23.888405 13882524
2.1176176 -3.4258516 23.888405 13750938
2.1554158 -3.4258516 23.888405 13751708
2.1932137 -3.4258516 23.888405 13817501
2.2004499 -3.378922 23.561165 13817501
2.2688098 -3.4258516 23.888405 13883293
2.2750106 -3.378922 23.561165 13883293
2.3122907 -3.378922 23.561165 13817756
0.31088498 -3.0878463 21.771709 14869167
0.34101716 -3.0492482 21.499563 15000753
0.37503538 -3.0492482 21.499563 15132594
0.40905362 -3.0492482 21.499563 15263921
0.44307184 -3.0492482 21.499563 15263660
2.0420215 -3.3880534 23.888405 13750687
2.0798197 -3.3880534 23.888405 13816479
2.0886092 -3.3416419 23.561165 13685149
2.1554158 -3.3880534 23.888405 13685661
2.1932137 -3.3880534 23.888405 13817503
2.2004499 -3.3416419 23.561165 13751967
2.2377303 -3.3416419 23.561165 13751966
2.2750106 -3.3416419 23.561165 13883550
2.3122907 -3.3416419 23.561165 13751964
-0.91727781 -2.9062457 20.722471 13882263
-0.85170048 -2.9062457 20.722471 13816471
-0.81891185 -2.9062457 20.722471 13882265
-0.78612322 -2.9062457 20.722471 13685143
1.9767685 -3.3043616 23.561165 13290646
2.0513289 -3.3043616 23.561165 13882268
2.0886092 -3.3043616 23.561165 13750939
2.1258895 -3.3043616 23.561165 13554074
2.1631696 -3.3043616 23.561165 13620122
2.2004499 -3.3043616 23.561165 13620634
2.2377303 -3.3043616 23.561165 13686170
2.2750106 -3.3043616 23.561165 13818011
-0.88448918 -2.873457 20.722471 13750676
-0.85170048 -2.873457 20.722471 13750676
-0.81891185 -2.873457 20.722471 13816983
-0.78612322 -2.873457 20.722471 13685142
1.9500554 -3.2229316 23.242771 13092496
2.0140488 -3.2670813 23.561165 13487511
2.0513289 -3.2670813 23.561165 13685145
2.0886092 -3.2670813 23.561165 13619608
2.1258895 -3.2670813 23.561165 13488279
2.1631696 -3.2670813 23.561165 13488535
2.2004499 -3.2670813 23.561165 13489047
2.2377303 -3.2670813 23.561165 13554839
2.2442672 -3.2229316 23.242771 13620632
2.2810435 -3.2229316 23.242771 13554838
-0.85170048 -2.8406684 20.722471 13685138
-0.81891185 -2.8406684 20.722471 13817237
-0.78612322 -2.8406684 20.722471 13751188
-0.75333452 -2.8406684 20.722471 13619604
-0.066372015 -2.9108083 21.234137 14278062
0.10038001 -2.8753107 20.975183 14805173
0.13356853 -2.8753107 20.975183 14739381
1.9500554 -3.1861551 23.242771 13026702
2.0140488 -3.2298009 23.561165 13289875
2.0513289 -3.2298009 23.561165 13487511
2.0886092 -3.2298009 23.561165 13487767
2.1258895 -3.2298009 23.561165 13487766
2.1631696 -3.2298009 23.561165 13488279
2.2004499 -3.2298009 23.561165 13554327
2.2377303 -3.2298009 23.561165 13554327
2.2442672 -3.1861551 23.242771 13488791
2.2810435 -3.1861551 23.242771 13488791
-1.0359511 -2.7744527 20.475775 13684623
-1.0035528 -2.7744527 20.475775 13684624
-0.8415612 -2.7744527 20.475775 13750931
-0.80916291 -2.7744527 20.475775 13751184
-0.77676457 -2.7744527 20.475775 13619600
-0.75333452 -2.8078797 20.722471 13619601
1.9500554 -3.1493785 23.242771 13026703
2.0140488 -3.1925209 23.561165 13224339
2.0513289 -3.1925209 23.561165 13421717
2.0886092 -3.1925209 23.561165 13487511
2.1258895 -3.1925209 23.561165 13619096
2.1631696 -3.1925209 23.561165 13685145
2.2004499 -3.1925209 23.561165 13619865
2.2377303 -3.1925209 23.561165 13488535
2.2810435 -3.1493785 23.242771 13554071
-1.0035528 -2.7420542 20.475775 13619087
-0.90635782 -2.7420542 20.475775 13553807
-0.8415612 -2.7420542 20.475775 13685393
-0.80916291 -2.7420542 20.475775 13685392
-0.76762617 -2.7097948 20.234884 13488014
0.47120008 -2.843612 21.234137 10000232
1.0035214 -3.0306916 22.631119 15199680
1.9500554 -3.1126022 23.242771 13092492
1.9868318 -3.1126022 23.242771 13224335
2.0513289 -3.1552405 23.561165 13421458
2.0886092 -3.1552405 23.561165 13553300
2.1258895 -3.1552405 23.561165 13553556
2.1631696 -3.1552405 23.561165 13488277
2.2004499 -3.1552405 23.561165 13422742
2.2377303 -3.1552405 23.561165 13356949
-0.93875617 -2.709656 20.475775 13422477
-0.90635782 -2.709656 20.475775 13356941
-0.86367768 -2.6777778 20.234884 13291404
-0.83166051 -2.6777778 20.234884 13488014
-0.79964334 -2.6777778 20.234884 13685394
-0.76762617 -2.6777778 20.234884 13487247
1.0393301 -2.9948828 22.631119 11842440
-0.97115451 -2.6772575 20.475775 13619600
-0.93875617 -2.6772575 20.475775 13356427
-0.90635782 -2.6772575 20.475775 13422734
-0.85363489 -2.6149957 19.999594 13225097
-0.83166051 -2.6457605 20.234884 13487757
-0.79964334 -2.6457605 20.234884 13618832
-0.75870031 -2.6149957 19.999594 13684113
1.0611759 -2.9206448 22.33721 2367234
-0.93875617 -2.6448593 20.475775 13290635
-0.90635782 -2.6448593 20.475775 13553806
-0.85363489 -2.5833509 19.999594 13290890
-0.83166051 -2.6137433 20.234884 13553293
-0.79964334 -2.6137433 20.234884 13684368
-0.75870031 -2.5833509 19.999594 13749649
-0.90635782 -2.6124611 20.475775 13488014
-0.85363489 -2.5517061 19.999594 13422221
-0.83166051 -2.5817261 20.234884 13553294
-0.79034513 -2.5517061 19.999594 13619088
-0.75870031 -2.5517061 19.999594 13618576
-0.63955754 -2.5817261 20.234884 15263913
-0.60754037 -2.5817261 20.234884 15329966
-0.5755232 -2.5817261 20.234884 15264172
-0.54350603 -2.5817261 20.234884 15264175
-0.51148885 -2.5817261 20.234884 15395760
0.26632261 -2.6761796 20.975183 1378816
0.29951113 -2.6761796 20.975183 1510144
-3.3467264 -2.1672525 17.199652 13353369
-3.3195119 -2.1672525 17.199652 13288859
-0.85363489 -2.5200613 19.999594 13356684
-0.83166051 -2.5497091 20.234884 13421964
-0.79034513 -2.5200613 19.999594 13487758
-0.75870031 -2.5200613 19.999594 13618832
-3.3467264 -2.140038 17.199652 13156754
-3.2206371 -2.1837122 17.550665 14937281
-1.1306425 -2.4045372 19.325451 13422494
-1.1253532 -2.4598138 19.769714 13159577
-0.85363489 -2.4884164 19.999594 13225353
-0.81254184 -2.4598138 19.769714 13159304
-0.79034513 -2.4884164 19.999594 13356427
-0.75870031 -2.4884164 19.999594 13422223
-3.2206371 -2.1559424 17.550665 15134140
-0.85363489 -2.4567714 19.999594 13159560
-0.81254184 -2.4285328 19.769714 12962182
-0.78126073 -2.4285328 19.769714 13027977
-0.74997962 -2.4285328 19.769714 13093772
-0.19359486 -2.5152659 20.475775 14869159
-0.16119653 -2.5152659 20.475775 15198124
-0.85363489 -2.4251266 19.999594 13291406
-0.81254184 -2.3972516 19.769714 12765063
1.2754526 -2.6400113 21.771709 1382406
5.3589153 -3.2587638 26.874454 13882773
-1.3443211 -2.3659704 19.769714 10659704
-0.74997962 -2.3659704 19.769714 12897423
-0.1593001 -2.4216404 20.234884 13553811
-0.09875112 -2.510237 20.975183 13554583
0.90800911 -2.638967 22.050835 8355389
-3.1331263 -2.0516968 17.373384 4145939
-0.75870031 -2.3618369 19.999594 12766102
-0.1593001 -2.3896232 20.234884 13554066
0.97779012 -2.6040766 22.050835 10067031
5.996757 -3.1737182 26.874454 12963219
-0.66376567 -2.3301921 19.999594 15264707
-0.19131728 -2.3576059 20.234884 13618832
-0.16313866 -2.4144158 20.722471 13487501
-0.065562598 -2.4438598 20.975183 13487503
0.97779012 -2.569186 22.050835 10066771
5.0783453 -2.9909928 25.671122 9343836
5.8691888 -3.1311955 26.874454 13160343
5.9542346 -3.1311955 26.874454 13029012
5.996757 -3.1311955 26.874454 12897167
-1.2191966 -2.2721272 19.769714 11581310
-1.1612208 -2.2210681 19.325451 11845251
-1.1306425 -2.2210681 19.325451 12240265
-0.66376567 -2.298547 19.999594 13619369
-0.19131728 -2.3255889 20.234884 13553297
-0.16313866 -2.3816271 20.722471 13553295
-0.064772688 -2.3816271 20.722471 12961929
1.3085812 -2.5672085 22.33721 4342819
1.3266951 -2.5342956 22.050835 4013853
1.3615856 -2.5342956 22.050835 3816731
5.0783453 -2.9503739 25.671122 6317616
5.4851637 -2.9950767 26.060078 4210723
5.8691888 -3.0886726 26.874454 13095317
5.9117117 -3.0886726 26.874454 12963473
5.9542346 -3.0886726 26.874454 12897422
5.996757 -3.0886726 26.874454 13094544
-1.5111794 -2.166151 19.110723 10857062
-1.2390336 -2.166151 19.110723 8358994
-1.0002286 -2.2408459 19.769714 8157765
-0.7414571 -2.2153819 19.545057 1512450
-0.66376567 -2.2669022 19.999594 8091991
-0.19359486 -2.3208761 20.475775 13224591
-0.16512816 -2.3774829 20.975183 13356432
5.0783453 -2.9097552 25.671122 4146453
5.9117117 -3.04615 26.874454 13029264
5.9542346 -3.04615 26.874454 13028749
5.996757 -3.04615 26.874454 13094027
9.9963903 -3.5446107 31.272093 10526556
-1.0002286 -2.2095647 19.769714 7764034
-0.7414571 -2.1844561 19.545057 2038021
-0.19359486 -2.2884779 20.475775 13159057
5.1595826 -2.8691363 25.671122 4870178
5.2002015 -2.8691363 25.671122 4672545
5.9117117 -3.0036271 26.874454 12831370
5.9542346 -3.0036271 26.874454 12765319
5.996757 -3.0036271 26.874454 12962182
5.9463682 -2.9574175 26.461 13225353
9.9963903 -3.4951298 31.272093 10460506
-0.22073752 -2.2036126 19.999594 13158548
-0.19359486 -2.2560794 20.475775 13159058
5.6088662 -2.8713739 26.060078 9542239
5.7788935 -2.9155488 26.461 13028751
6.0055485 -3.008106 27.301033 12436355
5.9542346 -2.9611044 26.874454 12830597
5.996757 -2.9611044 26.874454 12961923
6.0392799 -2.9611044 26.874454 13159301
5.9882364 -2.9155488 26.461 13224836
9.7692852 -3.3841193 30.713663 11316073
-0.63212079 -2.1719677 19.999594 6250292
5.6088662 -2.8301396 26.060078 9805155
5.6501002 -2.8301396 26.060078 13028496
5.7788935 -2.8736804 26.461 12896651
5.9542346 -2.9185815 26.874454 12830339
5.996757 -2.9185815 26.874454 12764288
6.0392799 -2.9185815 26.874454 13027202
6.0818028 -2.9185815 26.874454 13027200
6.0301051 -2.8736804 26.461 13027455
5.1595826 -2.7472801 25.671122 4475170
5.3614607 -2.7889054 26.060078 4936228
5.4026952 -2.7889054 26.060078 6054966
5.4439292 -2.7889054 26.060078 6910020
5.4851637 -2.7889054 26.060078 7567950
5.5263977 -2.7889054 26.060078 8160083
5.6088662 -2.7889054 26.060078 12700303
5.6501002 -2.7889054 26.060078 13160593
5.8691888 -2.8760588 26.874454 12633476
5.996757 -2.8760588 26.874454 12896636
6.0392799 -2.8760588 26.874454 13027963
6.0818028 -2.8760588 26.874454 13027706
6.0301051 -2.8318117 26.461 13027708
5.1595826 -2.7066612 25.671122 4145694
5.3614607 -2.7476711 26.060078 4475931
5.4026952 -2.7476711 26.060078 5199655
5.4439292 -2.7476711 26.060078 5594160
5.4851637 -2.7476711 26.060078 5923127
5.5263977 -2.7476711 26.060078 6515263
5.6088662 -2.7476711 26.060078 12568468
5.7370253 -2.7899432 26.461 12633998
6.1351418 -2.8785126 27.301033 12896128
6.1783395 -2.8785126 27.301033 13026946
6.2215371 -2.8785126 27.301033 13026948
6.2647347 -2.8785126 27.301033 13092999
6.3079329 -2.8785126 27.301033 13159051
6.3511305 -2.8785126 27.301033 13224846
6.3943281 -2.8785126 27.301033 13225105
6.4375257 -2.8785126 27.301033 13291155
6.4807239 -2.8785126 27.301033 13356949
6.5239215 -2.8785126 27.301033 13291413
6.7608294 -2.9249403 27.741373 13620118
6.8925128 -2.9249403 27.741373 13620118
5.5263977 -2.7064371 26.060078 5199401
5.5676322 -2.7064371 26.060078 8160080
5.6088662 -2.7064371 26.060078 12305035
5.7370253 -2.7480745 26.461 12502152
6.1351418 -2.835315 27.301033 13027454
6.1783395 -2.835315 27.301033 13027454
6.2215371 -2.835315 27.301033 13027456
6.2647347 -2.835315 27.301033 13027713
6.3079329 -2.835315 27.301033 13093508
6.3511305 -2.835315 27.301033 13093766
6.5852513 -2.8810458 27.741373 13160073
6.6291461 -2.8810458 27.741373 13160075
6.4645081 -2.7910132 26.874454 13291406
6.7608294 -2.8810458 27.741373 13619348
6.8925128 -2.8810458 27.741373 14014109
6.9364076 -2.8810458 27.741373 13750937
7.15588 -2.8810458 27.741373 8422215
7.1997743 -2.8810458 27.741373 8685642
7.243669 -2.8810458 27.741373 9014862
7.2875633 -2.8810458 27.741373 9146702
9.4546595 -3.1337693 30.174826 4146197
9.6720905 -3.1897295 30.713663 4343064
9.7206879 -3.1897295 30.713663 4408859
9.7692852 -3.1897295 30.713663 4408860
9.8178825 -3.1897295 30.713663 4540445
-0.68741733 -2.021878 19.769714 9343569
-0.65613621 -2.021878 19.769714 9080395
5.4026952 -2.6652029 26.060078 4607008
5.5276823 -2.7062058 26.461 5396525
5.5695505 -2.7062058 26.461 5988661
5.5263977 -2.6652029 26.060078 6909759
5.5676322 -2.6652029 26.060078 9344095
5.6088662 -2.6652029 26.060078 12765070
5.7370253 -2.7062058 26.461 12370052
6.1783395 -2.7921171 27.301033 13092995
6.2215371 -2.7921171 27.301033 13159046
6.2647347 -2.7921171 27.301033 13224583
6.3079329 -2.7921171 27.301033 13224841
6.3511305 -2.7921171 27.301033 13159563
6.6291461 -2.8371513 27.741373 13356686
6.4645081 -2.7484903 26.874454 13422222
6.507031 -2.7484903 26.874454 13422221
6.7608294 -2.8371513 27.741373 13553294
7.1119852 -2.8371513 27.741373 4277263
-0.66376567 -2.0137434 19.999594 5329432
0.53183079 -2.1119747 20.975183 13620128
0.57199484 -2.1380484 21.234137 14080167
0.5910005 -2.0865293 20.722471 14145962
0.62378913 -2.0865293 20.722471 14277292
0.65657783 -2.0865293 20.722471 14277547
0.6977734 -2.1119747 20.975183 14146727
0.73096192 -2.1119747 20.975183 14343339
4.8835993 -2.546793 25.293604 2040071
5.4026952 -2.6239686 26.060078 4869926
5.5276823 -2.6643374 26.461 5396013
5.5695505 -2.6643374 26.461 5988147
5.5263977 -2.6239686 26.060078 7238464
5.6532879 -2.6643374 26.461 10001764
5.6088662 -2.6239686 26.060078 12830603
6.2215371 -2.7489195 27.301033 13027461
6.2647347 -2.7489195 27.301033 13027719
6.3079329 -2.7489195 27.301033 13027977
6.3511305 -2.7489195 27.301033 13093770
6.4645081 -2.7059677 26.874454 13554061
6.507031 -2.7059677 26.874454 13685389
6.7608294 -2.7932568 27.741373 13882513
7.1119852 -2.7932568 27.741373 4146193
7.15588 -2.7932568 27.741373 4343572
7.1997743 -2.7932568 27.741373 4409109
7.243669 -2.7932568 27.741373 4343829
7.2875633 -2.7932568 27.741373 4409878
7.3314581 -2.7932568 27.741373 4278291
-3.0817871 -1.7393925 17.550665 3877385
4.8835993 -2.5067716 25.293604 1908227
5.4032955 -2.5441861 25.671122 4146200
5.6114192 -2.6224687 26.461 6317358
5.6532879 -2.6224687 26.461 9935967
5.6088662 -2.5827343 26.060078 12567682
6.7169352 -2.7493625 27.741373 12567427
6.7608294 -2.7493625 27.741373 12501892
6.6967125 -2.7057216 27.301033 12699015
-0.83423412 -1.9061251 19.545057 1840898
0.76415044 -2.0455976 20.975183 12171126
0.79733896 -2.0455976 20.975183 11907705
4.9564886 -2.5035672 25.671122 2105606
5.4032955 -2.5035672 25.671122 4146460
5.6532879 -2.5806 26.461 10724978
5.6088662 -2.5415001 26.060078 12304008
7.0680909 -2.7054679 27.741373 2765573
7.1119852 -2.7054679 27.741373 2568450
7.15588 -2.7054679 27.741373 2699778
7.1997743 -2.7054679 27.741373 2633986
7.243669 -2.7054679 27.741373 2568194
7.2875633 -2.7054679 27.741373 2765829
-3.3020928 -1.6021122 16.69869 1644809
-1.3599873 -1.8335283 19.110723 7364144
4.8835993 -2.4267287 25.293604 2302986
5.1237278 -2.4267287 25.293604 2435347
0.16474792 -1.9553746 20.722471 5724187
0.26632261 -1.9792206 20.975183 7106616
4.8128223 -2.3521173 24.927031 2631691
5.1237278 -2.3867073 25.293604 2434833
5.1237278 -2.3466859 25.293604 2500111
8.5345192 -2.7046547 29.151951 7171920
8.5806456 -2.7046547 29.151951 6908750
8.6267719 -2.7046547 29.151951 6908751
4.9564886 -2.3410921 25.671122 3486996
6.251894 -2.4508309 26.874454 2041096
6.2944169 -2.4508309 26.874454 2106888
6.3369398 -2.4508309 26.874454 2040839
6.3794622 -2.4508309 26.874454 2106375
6.4219851 -2.4508309 26.874454 1974534
6.3650541 -2.4131258 26.461 1842950
6.4069228 -2.4131258 26.461 1711110
0.45437151 -1.8349013 20.475775 13816982
0.48676983 -1.8349013 20.475775 13948825
0.51916814 -1.8349013 20.475775 13751193
0.55156648 -1.8349013 20.475775 13488023
0.85129064 -1.9266465 21.499563 8486980
6.5239215 -2.4465351 27.301033 2764307
6.5671191 -2.4465351 27.301033 2764051
6.6103168 -2.4465351 27.301033 2698002
6.5495534 -2.408308 26.874454 2632210
0.62378913 -1.8242199 20.722471 6250790
0.65657783 -1.8242199 20.722471 5921569
0.68936646 -1.8242199 20.722471 5658140
6.5671191 -2.4033375 27.301033 3093015
6.6103168 -2.4033375 27.301033 2895636
6.5495534 -2.3657854 26.874454 2698257
0.60559309 -1.8356642 21.234137 5460247
0.63139635 -1.813278 20.975183 5657884
0.65657783 -1.7914313 20.722471 5986592
0.68936646 -1.7914313 20.722471 6250020
0.72215515 -1.7914313 20.722471 6250021
0.76415044 -1.813278 20.975183 6512422
0.79733896 -1.813278 20.975183 6643751
0.83052748 -1.813278 20.975183 6709543
0.85330975 -1.7914313 20.722471 6709800
0.63919133 -1.802066 21.234137 6907186
0.67278963 -1.802066 21.234137 7038772
0.70638788 -1.802066 21.234137 6973234
0.73998612 -1.802066 21.234137 6775855
0.76415044 -1.7800895 20.975183 6709548
0.79733896 -1.7800895 20.975183 6709293
0.83052748 -1.7800895 20.975183 6774828
0.85330975 -1.7586427 20.722471 6380584
0.56501931 -1.7469009 20.975183 5986089
-1.3310672 -1.4080856 18.297501 11842681
4.6274338 -1.8908578 24.57093 1315842
4.8035564 -1.9464712 25.293604 1973768
4.4472675 -1.8258955 24.224861 12041333
4.6274338 -1.8519799 24.57093 1118722
1.2619783 -1.5477699 20.975183 4671008
4.4472675 -1.7875652 24.224861 11975797
4.6944981 -1.8393787 24.927031 1250305
1.2775582 -1.5332799 21.234137 4868387
4.4472675 -1.7492348 24.224861 11975799
4.6944981 -1.7999372 24.927031 1316097
-0.70254791 -1.3648788 19.325451 5395753
1.2775582 -1.4996816 21.234137 5065509
4.4472675 -1.7109044 24.224861 11778420
4.6944981 -1.7604958 24.927031 1250306
-3.1017952 -1.1875275 17.199652 723969
-3.0745804 -1.1875275 17.199652 592129
-3.0473659 -1.1875275 17.199652 526082
-3.0201514 -1.1875275 17.199652 657666
-2.9929368 -1.1875275 17.199652 855043
-2.9657221 -1.1875275 17.199652 1249795
-0.64139158 -1.3343006 19.325451 8486990
1.2775582 -1.4660834 21.234137 5131045
4.5107999 -1.6964679 24.57093 11514995
4.6944981 -1.7210543 24.927031 1316098
1.2775582 -1.4324851 21.234137 5196582
4.5107999 -1.6575899 24.57093 11448693
4.6274338 -1.6575899 24.57093 1579269
-0.42734423 -1.2731442 19.325451 9210193
-0.39235753 -1.2589982 19.110723 9670227
1.2775582 -1.3988868 21.234137 5196837
4.5622587 -1.5959132 24.224861 1908233
-0.42734423 -1.242566 19.325451 9341780
-0.39235753 -1.2287598 19.110723 9604948
1.2775582 -1.3652886 21.234137 5131042
4.4988942 -1.5359497 23.888405 2171404
-0.42734423 -1.2119879 19.325451 9341779
-0.39235753 -1.1985213 19.110723 9473619
1.2775582 -1.3316903 21.234137 5131296
4.4988942 -1.4981517 23.888405 2368782
-0.42734423 -1.1814096 19.325451 9407571
-0.39235753 -1.1682829 19.110723 9670997
1.2775582 -1.2980921 21.234137 5065759
-0.42734423 -1.1508315 19.325451 9144657
-0.39235753 -1.1380445 19.110723 9539668
1.2775582 -1.2644938 21.234137 5065502
5.3638568 -1.5062352 25.293604 987397
5.4038782 -1.5062352 25.293604 856067
-0.39235753 -1.107806 19.110723 9276496
1.2775582 -1.2308955 21.234137 4999454
5.3638568 -1.4662138 25.293604 461568
5.4038782 -1.4662138 25.293604 724737
-0.39235753 -1.0775676 19.110723 9143882
-0.36211911 -1.0775676 19.110723 7433261
1.2775582 -1.1972973 21.234137 4934176
-0.39235753 -1.0473292 19.110723 9341006
-0.36211911 -1.0473292 19.110723 7499312
-0.39235753 -1.0170907 19.110723 9472850
-0.36618787 -1.0285187 19.325451 7696694
-3.2756708 -0.86229813 16.69869 2763538
-3.157289 -0.83789343 16.226086 2368783
-0.39235753 -0.98685229 19.110723 9473108
-0.36618787 -0.99794054 19.325451 7762746
-0.39235753 -0.95661384 19.110723 9275989
-0.36618787 -0.96736234 19.325451 7631420
-0.39235753 -0.92637545 19.110723 9275993
-0.36618787 -0.93678415 19.325451 7434301
-0.39235753 -0.896137 19.110723 9275994
-0.39235753 -0.86589855 19.110723 9276252
-0.39235753 -0.83566016 19.110723 9275999
-0.39676607 -0.81447136 19.325451 9078361
2.8967674 -0.92933273 22.050835 3356956
2.9316578 -0.92933273 22.050835 3356699
-0.39676607 -0.78389323 19.325451 9407067
2.9371896 -0.91798019 22.631119 988168
2.9729981 -0.91798019 22.631119 988422
3.0088067 -0.91798019 22.631119 1053958
3.0446155 -0.91798019 22.631119 922632
3.0804241 -0.91798019 22.631119 988167
3.1878502 -0.91798019 22.631119 1513994
3.2236588 -0.91798019 22.631119 1711371
3.2594674 -0.91798019 22.631119 1579529
3.2952762 -0.91798019 22.631119 1842702
3.3310847 -0.91798019 22.631119 2171152
3.3668935 -0.91798019 22.631119 2039564
3.4027021 -0.91798019 22.631119 2236941
3.4385109 -0.91798019 22.631119 2236940
3.4743195 -0.91798019 22.631119 2631438
3.510128 -0.91798019 22.631119 2697232
3.5459368 -0.91798019 22.631119 2829074
3.6295021 -0.93021995 22.932867 2434574
4.7256823 -0.96897912 23.888405 1645576
4.8995795 -0.99666423 24.57093 1316612
5.2106037 -0.99666423 24.57093 1381381
3.510128 -0.88217151 22.631119 2302477
3.641773 -0.90601403 23.242771 1974285
4.8305717 -0.9442963 24.224861 1053441
4.8012781 -0.93118107 23.888405 856065
4.8390765 -0.93118107 23.888405 724482
4.9146724 -0.93118107 23.888405 724484
4.9524703 -0.93118107 23.888405 790020
5.0658646 -0.93118107 23.888405 723456
3.641773 -0.86923754 23.242771 1973516
4.8305717 -0.90596586 24.224861 921856
4.8012781 -0.89338303 23.888405 724480
4.8390765 -0.89338303 23.888405 592896
4.9146724 -0.89338303 23.888405 987653
4.9524703 -0.89338303 23.888405 987397
-3.0988207 -0.57038999 15.925603 3356444
-2.9800093 -0.58668685 16.380619 3750926
-2.9262218 -0.58115208 16.226086 4078867
3.641773 -0.83246106 23.242771 2235911
4.8305717 -0.86763549 24.224861 1250819
4.8689022 -0.86763549 24.224861 1250821
4.9072323 -0.86763549 24.224861 1119236
4.9146724 -0.85558498 23.888405 1118979
4.9524703 -0.85558498 23.888405 1118724
-3.0988207 -0.54519129 15.925603 3553824
-3.073622 -0.54519129 15.925603 3553821
3.7746465 -0.78507549 22.932867 657664
4.9146724 -0.81778693 23.888405 921601
4.9524703 -0.81778693 23.888405 855554
-3.0988207 -0.51999259 15.925603 3423006
-3.1316149 -0.52980381 16.226086 4014627
2.5181842 -0.70199001 21.499563 10000471
2.5522025 -0.70199001 21.499563 9803348
2.5862205 -0.70199001 21.499563 9671763
2.6202388 -0.70199001 21.499563 9540434
2.6882753 -0.70199001 21.499563 9343309
2.7222936 -0.70199001 21.499563 9277516
3.7746465 -0.74878937 22.932867 789505
4.6236668 -0.7693041 23.561165 1316608
4.9146724 -0.77998888 23.888405 921601
4.9524703 -0.77998888 23.888405 592385
-3.0988207 -0.49479392 15.925603 3554848
-3.1316149 -0.50412965 16.226086 3817760
1.6270519 -0.65167981 20.975183 8816962
2.4534972 -0.65972519 21.234137 10000728
2.5181842 -0.66797179 21.499563 9737811
2.5522025 -0.66797179 21.499563 9606225
2.5862205 -0.66797179 21.499563 9475152
2.6202388 -0.66797179 21.499563 9475152
2.6882753 -0.66797179 21.499563 9343822
2.7222936 -0.66797179 21.499563 9343566
3.7746465 -0.71250325 22.932867 921345
4.5611849 -0.72213167 23.242771 1119232
4.9146724 -0.74219084 23.888405 921859
4.9524703 -0.74219084 23.888405 395264
1.5746603 -0.61103958 20.722471 8948039
1.6270519 -0.61849129 20.975183 8750401
2.419899 -0.62612695 21.234137 9869397
2.4841659 -0.63395357 21.499563 9606482
2.5181842 -0.63395357 21.499563 9474896
2.5522025 -0.63395357 21.499563 9474896
2.5862205 -0.63395357 21.499563 9474895
2.6202388 -0.63395357 21.499563 9409101
2.6542571 -0.63395357 21.499563 9343565
2.6882753 -0.63395357 21.499563 9278028
2.7222936 -0.63395357 21.499563 9277772
3.7249801 -0.66731954 22.631119 922114
4.5611849 -0.68535519 23.242771 1118977
4.9146724 -0.70439285 23.888405 1119751
4.9524703 -0.70439285 23.888405 395520
4.9219089 -0.69474363 23.561165 986626
1.6270519 -0.58530277 20.975183 8749890
1.9353355 -0.57825089 20.722471 9803598
2.3527024 -0.5925287 21.234137 9935193
2.4161294 -0.59993529 21.499563 9672019
2.4501476 -0.59993529 21.499563 9474897
2.4841659 -0.59993529 21.499563 9408847
2.5181842 -0.59993529 21.499563 9408590
2.5522025 -0.59993529 21.499563 9474639
2.5862205 -0.59993529 21.499563 9540175
2.6202388 -0.59993529 21.499563 9474637
2.6542571 -0.59993529 21.499563 9408588
2.6882753 -0.59993529 21.499563 9277002
2.7222936 -0.59993529 21.499563 9145672
3.7249801 -0.63151085 22.631119 922372
4.5611849 -0.6485787 23.242771 1185026
4.8473482 -0.65746337 23.561165 1448714
4.8846283 -0.65746337 23.561165 592896
4.9219089 -0.65746337 23.561165 723713
1.7827026 -0.53896862 20.475775 9605704
1.9353355 -0.54546225 20.722471 9803598
1.9681242 -0.54546225 20.722471 10000978
2.2908225 -0.55211425 20.975183 9804121
2.3527024 -0.55893046 21.234137 9672535
2.4161294 -0.56591707 21.499563 9606228
2.4501476 -0.56591707 21.499563 9540434
2.4841659 -0.56591707 21.499563 9474641
2.5181842 -0.56591707 21.499563 9474384
2.5522025 -0.56591707 21.499563 9540176
2.5862205 -0.56591707 21.499563 9605712
2.6202388 -0.56591707 21.499563 9605711
2.6542571 -0.56591707 21.499563 9539917
2.6882753 -0.56591707 21.499563 9408332
2.7222936 -0.56591707 21.499563 9276746
3.7249801 -0.59570217 22.631119 1053702
4.8473482 -0.62018311 23.561165 1579786
4.8846283 -0.62018311 23.561165 723968
4.9219089 -0.62018311 23.561165 657921
1.620711 -0.50657034 20.475775 9078598
1.6855075 -0.50657034 20.475775 9013569
1.7827026 -0.50657034 20.475775 9539911
1.8151009 -0.50657034 20.475775 9605960
1.8697582 -0.51267356 20.722471 9672010
1.9025469 -0.51267356 20.722471 9672267
1.9353355 -0.51267356 20.722471 9738062
1.9681242 -0.51267356 20.722471 9869905
2.2519076 -0.52533221 21.234137 9606999
2.2855058 -0.52533221 21.234137 9475413
2.3191042 -0.52533221 21.234137 9541206
2.3527024 -0.52533221 21.234137 9540949
2.4161294 -0.53189886 21.499563 9540434
2.4501476 -0.53189886 21.499563 9605970
2.4841659 -0.53189886 21.499563 9605714
2.5181842 -0.53189886 21.499563 9539921
2.5522025 -0.53189886 21.499563 9540176
2.5862205 -0.53189886 21.499563 9539662
2.6202388 -0.53189886 21.499563 9605454
2.6542571 -0.53189886 21.499563 9670990
2.6882753 -0.53189886 21.499563 9605197
2.7222936 -0.53189886 21.499563 9407818
3.6766038 -0.5526222 22.33721 1251336
4.8473482 -0.58290285 23.561165 1513738
4.8846283 -0.58290285 23.561165 855297
4.9219089 -0.58290285 23.561165 789763
6.0659194 -0.60788441 24.57093 3554073
1.5055922 -0.46859351 20.234884 6117926
1.6602405 -0.48573717 20.975183 8684610
1.6531093 -0.474172 20.475775 8881983
1.6855075 -0.474172 20.475775 9079360
1.7503042 -0.474172 20.475775 9539911
1.7827026 -0.474172 20.475775 9540424
1.8151009 -0.474172 20.475775 9540424
1.8697582 -0.47988492 20.722471 9606217
1.9025469 -0.47988492 20.722471 9672010
1.9353355 -0.47988492 20.722471 9672524
1.9681242 -0.47988492 20.722471 9869904
2.2519076 -0.49173394 21.234137 9606483
2.2855058 -0.49173394 21.234137 9409360
2.3191042 -0.49173394 21.234137 9475153
2.3821111 -0.49788061 21.499563 9540689
2.4161294 -0.49788061 21.499563 9540433
2.4501476 -0.49788061 21.499563 9606225
2.4841659 -0.49788061 21.499563 9605969
2.5500598 -0.50418288 21.771709 9605712
2.5522025 -0.49788061 21.499563 9671247
2.5862205 -0.49788061 21.499563 9539661
2.6202388 -0.49788061 21.499563 9539661
2.6542571 -0.49788061 21.499563 9670733
2.6882753 -0.49788061 21.499563 9670733
2.7222936 -0.49788061 21.499563 9407561
2.7563117 -0.49788061 21.499563 9144389
3.6766038 -0.51727855 22.33721 1383179
4.8473482 -0.54562259 23.561165 1382152
4.8846283 -0.54562259 23.561165 921346
4.9219089 -0.54562259 23.561165 855812
6.0659194 -0.56900638 24.57093 3619608
6.1047974 -0.56900638 24.57093 3685400
1.1716367 -0.4314999 19.999594 4144398
1.5055922 -0.43657637 20.234884 6184234
1.6602405 -0.45254865 20.975183 8816197
1.693429 -0.45254865 20.975183 9079364
1.705815 -0.44709626 20.722471 9210946
1.7503042 -0.44177368 20.475775 9408838
1.7827026 -0.44177368 20.475775 9540424
1.8151009 -0.44177368 20.475775 9606217
1.8697582 -0.44709626 20.722471 9672010
1.9025469 -0.44709626 20.722471 9672267
1.9353355 -0.44709626 20.722471 9804109
1.9681242 -0.44709626 20.722471 9870160
2.0009129 -0.44709626 20.722471 9804625
2.2519076 -0.45813569 21.234137 9606478
2.3140748 -0.46386239 21.499563 9408843
2.348093 -0.46386239 21.499563 9408843
2.3821111 -0.46386239 21.499563 9474380
2.4161294 -0.46386239 21.499563 9474636
2.4501476 -0.46386239 21.499563 9540174
2.5156109 -0.46973404 21.771709 9540175
2.5500598 -0.46973404 21.771709 9671247
2.5522025 -0.46386239 21.499563 9671247
2.5862205 -0.46386239 21.499563 9605454
2.6202388 -0.46386239 21.499563 9539661
2.6542571 -0.46386239 21.499563 9539661
2.6882753 -0.46386239 21.499563 9539147
2.7222936 -0.46386239 21.499563 9276232
2.7563117 -0.46386239 21.499563 9013059
3.6766038 -0.48193493 22.33721 1515534
4.5244083 -0.50147283 23.242771 4540187
4.8473482 -0.50834233 23.561165 1513992
4.8846283 -0.50834233 23.561165 1052931
4.9219089 -0.50834233 23.561165 724226
6.0659194 -0.53012842 24.57093 3750935
6.1047974 -0.53012842 24.57093 3816983
6.1436753 -0.53012842 24.57093 3684885
6.5088038 -0.53781146 24.927031 4342296
6.8446503 -0.54572046 25.293604 4604953
1.1716367 -0.39985502 19.999594 3947276
1.5235161 -0.40937537 20.475775 6250027
1.6602405 -0.41936013 20.975183 8947784
1.693429 -0.41936013 20.975183 9145156
1.705815 -0.41430759 20.722471 9079617
1.7179059 -0.40937537 20.475775 9080130
1.7503042 -0.40937537 20.475775 9277252
1.7827026 -0.40937537 20.475775 9409095
1.8369695 -0.41430759 20.722471 9540680
1.8697582 -0.41430759 20.722471 9540937
1.9025469 -0.41430759 20.722471 9606731
1.9353355 -0.41430759 20.722471 9804109
1.9681242 -0.41430759 20.722471 9804367
2.0253143 -0.41936013 20.975183 9607246
2.0585027 -0.41936013 20.975183 9541454
2.1175146 -0.42453742 21.234137 9475662
2.1780019 -0.42984414 21.499563 9212490
2.2120199 -0.42984414 21.499563 9211978
2.2183094 -0.42453742 21.234137 9474892
2.2519076 -0.42453742 21.234137 9474890
2.4467134 -0.43528521 21.771709 9343048
2.4811621 -0.43528521 21.771709 9474379
2.5156109 -0.43528521 21.771709 9540172
2.5500598 -0.43528521 21.771709 9605453
2.5845087 -0.43528521 21.771709 9605708
2.5862205 -0.42984414 21.499563 9539660
2.6202388 -0.42984414 21.499563 9473868
2.6542571 -0.42984414 21.499563 9408075
2.6882753 -0.42984414 21.499563 9276489
2.7222936 -0.42984414 21.499563 9079111
2.7563117 -0.42984414 21.499563 8881732
2.7903299 -0.42984414 21.499563 8618559
4.5244083 -0.46469638 23.242771 4737566
4.8846283 -0.47106206 23.561165 1513994
4.9219089 -0.47106206 23.561165 724226
6.0659194 -0.49125046 24.57093 3882005
6.1047974 -0.49125046 24.57093 4079383
6.1436753 -0.49125046 24.57093 3882004
6.1825533 -0.49125046 24.57093 4013333
6.3510385 -0.49837002 24.927031 4210454
6.3904796 -0.49837002 24.927031 4210709
6.4299212 -0.49837002 24.927031 4341781
6.5088038 -0.49837002 24.927031 4473111
6.5482454 -0.49837002 24.927031 4473367
6.724586 -0.50569898 25.293604 4539160
6.8446503 -0.50569898 25.293604 4670748
6.8846717 -0.50569898 25.293604 4604954
8.4630795 -0.53730518 26.874454 4144145
1.5235161 -0.37697706 20.475775 6315563
1.6602405 -0.38617161 20.975183 9013321
1.693429 -0.38617161 20.975183 8948548
1.7266176 -0.38617161 20.975183 9014595
1.7386036 -0.38151896 20.722471 9146181
1.7713922 -0.38151896 20.722471 9277767
1.8041809 -0.38151896 20.722471 9409353
1.8369695 -0.38151896 20.722471 9475146
1.8925601 -0.38617161 20.975183 9409353
1.9025469 -0.38151896 20.722471 9540939
1.9353355 -0.38151896 20.722471 9738318
1.9921257 -0.38617161 20.975183 9672525
2.0253143 -0.38617161 20.975183 9672525
2.0839164 -0.39093918 21.234137 9606732
2.1175146 -0.39093918 21.234137 9540939
2.1780019 -0.39582589 21.499563 9475146
2.2120199 -0.39582589 21.499563 9409352
2.4811621 -0.40083635 21.771709 9539916
2.5156109 -0.40083635 21.771709 9539916
2.5500598 -0.40083635 21.771709 9605455
2.5845087 -0.40083635 21.771709 9539663
2.5862205 -0.39582589 21.499563 9605455
2.6202388 -0.39582589 21.499563 9539662
2.6542571 -0.39582589 21.499563 9473869
2.6882753 -0.39582589 21.499563 9276747
2.7222936 -0.39582589 21.499563 9013576
2.7563117 -0.39582589 21.499563 8750403
2.7903299 -0.39582589 21.499563 8421694
4.5244083 -0.42791989 23.242771 4868641
6.0659194 -0.45237246 24.57093 3881491
6.1047974 -0.45237246 24.57093 4079126
6.1436753 -0.45237246 24.57093 4013333
6.1825533 -0.45237246 24.57093 4144661
6.2214313 -0.45237246 24.57093 4210197
6.3510385 -0.45892859 24.927031 4210195
6.3904796 -0.45892859 24.927031 4209939
6.4299212 -0.45892859 24.927031 4275731
6.4693627 -0.45892859 24.927031 4407316
6.5088038 -0.45892859 24.927031 4473110
6.5482454 -0.45892859 24.927031 4538902
6.587687 -0.45892859 24.927031 4604695
6.724586 -0.46567753 25.293604 4539161
6.8446503 -0.46567753 25.293604 4670749
6.8846717 -0.46567753 25.293604 4539162
7.1905222 -0.47262794 25.671122 4670228
7.3529973 -0.47262794 25.671122 4407056
7.753046 -0.47978899 26.060078 4407318
8.1654034 -0.48717034 26.461 4406804
8.4630795 -0.49478239 26.874454 4341524
8.5056019 -0.49478239 26.874454 4275732
8.6331701 -0.49478239 26.874454 4144662
9.0725889 -0.50263608 27.301033 4145433
-0.31775811 -0.30792141 18.297501 5263646
1.5235161 -0.34457874 20.475775 6249769
1.6602405 -0.35298309 20.975183 9013321
1.7266176 -0.35298309 20.975183 9014595
1.7386036 -0.3487303 20.722471 9146181
1.7713922 -0.3487303 20.722471 9211974
1.8041809 -0.3487303 20.722471 9343560
1.8369695 -0.3487303 20.722471 9409353
1.8925601 -0.35298309 20.975183 9409353
1.9257487 -0.35298309 20.975183 9409353
1.9589372 -0.35298309 20.975183 9540939
1.9921257 -0.35298309 20.975183 9540939
2.0253143 -0.35298309 20.975183 9540939
2.0839164 -0.3573409 21.234137 9475146
2.1175146 -0.3573409 21.234137 9409353
2.5156109 -0.36638752 21.771709 9408074
2.5500598 -0.36638752 21.771709 9539662
2.5845087 -0.36638752 21.771709 9473870
2.6189575 -0.36638752 21.771709 9473870
2.6202388 -0.36180767 21.499563 9342284
2.6878552 -0.36638752 21.771709 9210954
2.7223041 -0.36638752 21.771709 9013576
2.7920959 -0.37108478 22.050835 8750660
2.7912018 -0.36638752 21.771709 8487487
2.7903299 -0.36180767 21.499563 8355900
2.8243482 -0.36180767 21.499563 8224057
3.7119474 -0.37590408 22.33721 4278053
4.5244083 -0.39114344 23.242771 4868130
6.0270414 -0.4134945 24.57093 3552785
6.0659194 -0.4134945 24.57093 3750162
6.1932726 -0.41948715 24.927031 3882260
6.2327137 -0.41948715 24.927031 4013846
6.1825533 -0.4134945 24.57093 4079382
6.3115969 -0.41948715 24.927031 4079638
6.3510385 -0.41948715 24.927031 4144917
6.3904796 -0.41948715 24.927031 4210453
6.4299212 -0.41948715 24.927031 4276246
6.4693627 -0.41948715 24.927031 4407575
6.5088038 -0.41948715 24.927031 4538905
6.5482454 -0.41948715 24.927031 4604698
6.587687 -0.41948715 24.927031 4604442
6.724586 -0.42565608 25.293604 4539162
6.8446503 -0.42565608 25.293604 4671004
6.8846717 -0.42565608 25.293604 4539162
7.1905222 -0.43200916 25.671122 4670229
7.2717595 -0.43200916 25.671122 4670228
7.3123784 -0.43200916 25.671122 4604435
7.3529973 -0.43200916 25.671122 4538643
7.3936162 -0.43200916 25.671122 4538643
7.7118115 -0.43855476 26.060078 4472854
7.753046 -0.43855476 26.060078 4472854
7.7942801 -0.43855476 26.060078 4407061
8.1654034 -0.44530174 26.461 4406804
8.2072725 -0.44530174 26.461 4406804
8.4205561 -0.4522596 26.874454 4472599
8.4630795 -0.4522596 26.874454 4472599
8.5056019 -0.4522596 26.874454 4407063
8.5481243 -0.4522596 26.874454 4407578
8.5906477 -0.4522596 26.874454 4407578
8.6331701 -0.4522596 26.874454 4210456
9.0725889 -0.45943832 27.301033 4145176
9.1157866 -0.45943832 27.301033 4211225
-3.1096025 -0.24974434 16.380619 9934948
-2.9563274 -0.25214574 16.538126 6905887
-2.9022532 -0.24974434 16.380619 7234849
-0.32117486 -0.2819694 18.494247 5395487
1.5235161 -0.31218043 20.475775 6118183
1.7266176 -0.31979457 20.975183 8948546
1.759806 -0.31979457 20.975183 9145924
1.7713922 -0.31594163 20.722471 9211974
1.8041809 -0.31594163 20.722471 9277767
1.8369695 -0.31594163 20.722471 9343560
1.8925601 -0.31979457 20.975183 9409096
1.9257487 -0.31979457 20.975183 9409353
1.9831216 -0.32374266 21.234137 9343560
2.0167198 -0.32374266 21.234137 9343304
2.050318 -0.32374266 21.234137 9343304
2.0839164 -0.32374266 21.234137 9277767
2.1175146 -0.32374266 21.234137 9211974
2.5500598 -0.33193868 21.771709 9408075
2.5845087 -0.33193868 21.771709 9408075
2.6189575 -0.33193868 21.771709 9342283
2.6534064 -0.33193868 21.771709 9145162
2.6878552 -0.33193868 21.771709 9013576
2.7912018 -0.33193868 21.771709 8355902
2.7903299 -0.32778943 21.499563 8290108
2.8243482 -0.32778943 21.499563 8290107
3.7119474 -0.34056047 22.33721 4080417
6.0270414 -0.3746165 24.57093 3619092
6.0659194 -0.3746165 24.57093 3619348
6.1932726 -0.38004574 24.927031 3685652
6.2327137 -0.38004574 24.927031 3948824
6.2721553 -0.38004574 24.927031 3882775
6.3115969 -0.38004574 24.927031 3948567
6.3510385 -0.38004574 24.927031 4145432
6.4844575 -0.38563463 25.293604 4211226
6.4299212 -0.38004574 24.927031 4276762
6.4693627 -0.38004574 24.927031 4407836
6.5088038 -0.38004574 24.927031 4539165
6.5482454 -0.38004574 24.927031 4604702
6.6845646 -0.38563463 25.293604 4538652
6.724586 -0.38563463 25.293604 4473115
6.7646074 -0.38563463 25.293604 4539162
6.8046288 -0.38563463 25.293604 4539418
6.8446503 -0.38563463 25.293604 4670747
6.8846717 -0.38563463 25.293604 4802076
7.1345325 -0.39732054 26.060078 4867868
7.1757665 -0.39732054 26.060078 4933405
7.217001 -0.39732054 26.060078 4999197
7.1499033 -0.39139038 25.671122 4933403
7.1905222 -0.39139038 25.671122 4867609
7.2311406 -0.39139038 25.671122 4801816
7.2717595 -0.39139038 25.671122 4670231
7.423172 -0.39732054 26.060078 4670231
7.464406 -0.39732054 26.060078 4669976
7.5056405 -0.39732054 26.060078 4669976
7.5468745 -0.39732054 26.060078 4604696
7.629343 -0.39732054 26.060078 4473368
7.7118115 -0.39732054 26.060078 4407576
7.753046 -0.39732054 26.060078 4341783
7.7942801 -0.39732054 26.060078 4276247
7.8355141 -0.39732054 26.060078 4341783
8.207942 -0.40973681 26.874454 4538392
8.1235352 -0.40343314 26.461 4472599
8.1654034 -0.40343314 26.461 4537879
8.2072725 -0.40343314 26.461 4537878
8.2491407 -0.40343314 26.461 4537879
8.4205561 -0.40973681 26.874454 4472344
8.4630795 -0.40973681 26.874454 4472601
8.5056019 -0.40973681 26.874454 4472601
8.5481243 -0.40973681 26.874454 4341272
8.5906477 -0.40973681 26.874454 4275736
8.6331701 -0.40973681 26.874454 4210455
8.6756935 -0.40973681 26.874454 4079383
9.0725889 -0.41624057 27.301033 4013847
9.2628155 -0.42295411 27.741373 4079895
-2.9281719 -0.22382568 16.380619 6708253
-2.9022532 -0.22382568 16.380619 6971423
-2.9039917 -0.22597785 16.538126 7365665
-0.32117486 -0.25270641 18.494247 5526814
1.7266176 -0.28660604 20.975183 8948033
1.759806 -0.28660604 20.975183 9079876
1.7713922 -0.28315297 20.722471 9211461
1.8261831 -0.28660604 20.975183 9211461
1.8593717 -0.28660604 20.975183 9277255
1.8925601 -0.28660604 20.975183 9408841
1.9257487 -0.28660604 20.975183 9474377
2.7903299 -0.29377121 21.499563 8356157
2.8243482 -0.29377121 21.499563 8290364
2.8230779 -0.29014441 21.234137 8224571
3.7119474 -0.30521685 22.33721 4343333
6.0270414 -0.33573851 24.57093 3684885
6.153831 -0.34060431 24.927031 3685141
6.1932726 -0.34060431 24.927031 3685396
6.2327137 -0.34060431 24.927031 3883031
6.2721553 -0.34060431 24.927031 3882517
6.3115969 -0.34060431 24.927031 3948310
6.3510385 -0.34060431 24.927031 4145431
6.4844575 -0.34561318 25.293604 4276761
6.5244789 -0.34561318 25.293604 4276761
6.4693627 -0.34060431 24.927031 4407578
6.5088038 -0.34060431 24.927031 4473371
6.5482454 -0.34060431 24.927031 4538652
6.6845646 -0.34561318 25.293604 4472859
6.724586 -0.34561318 25.293604 4407322
6.7646074 -0.34561318 25.293604 4342040
6.8046288 -0.34561318 25.293604 4407831
6.8446503 -0.34561318 25.293604 4539416
6.9874282 -0.35077158 25.671122 4670746
7.1345325 -0.35608631 26.060078 4736794
7.1757665 -0.35608631 26.060078 4802331
7.217001 -0.35608631 26.060078 4867867
7.1499033 -0.35077158 25.671122 4867609
7.1905222 -0.35077158 25.671122 4801816
7.2311406 -0.35077158 25.671122 4801817
7.2717595 -0.35077158 25.671122 4801562
7.423172 -0.35608631 26.060078 4736025
7.464406 -0.35608631 26.060078 4670489
7.5056405 -0.35608631 26.060078 4670489
7.5468745 -0.35608631 26.060078 4604698
7.4748535 -0.35077158 25.671122 4538905
7.629343 -0.35608631 26.060078 4473113
7.6705775 -0.35608631 26.060078 4407576
7.7118115 -0.35608631 26.060078 4342040
7.753046 -0.35608631 26.060078 4342296
7.7942801 -0.35608631 26.060078 4277016
7.8355141 -0.35608631 26.060078 4276760
7.8767486 -0.35608631 26.060078 4341783
8.207942 -0.36721399 26.874454 4407319
8.1235352 -0.36156455 26.461 4407063
8.1654034 -0.36156455 26.461 4406807
8.2072725 -0.36156455 26.461 4406807
8.2491407 -0.36156455 26.461 4406808
8.4205561 -0.36721399 26.874454 4406808
8.4630795 -0.36721399 26.874454 4472601
8.5056019 -0.36721399 26.874454 4472601
8.5481243 -0.36721399 26.874454 4407065
8.5906477 -0.36721399 26.874454 4341272
8.6331701 -0.36721399 26.874454 4210456
8.6756935 -0.36721399 26.874454 4145176
8.7182159 -0.36721399 26.874454 4145177
9.0725889 -0.37304279 27.301033 4079640
9.2628155 -0.37905961 27.741373 4145688
9.1589842 -0.37304279 27.301033 4211480
9.6139717 -0.37905961 27.741373 4080150
9.6578665 -0.37905961 27.741373 4079894
-2.9281719 -0.19790703 16.380619 6774304
-2.9022532 -0.19790703 16.380619 7168548
-2.8763347 -0.19790703 16.380619 7365154
-2.8778238 -0.19980998 16.538126 7496483
-2.851656 -0.19980998 16.538126 7562018
-2.8254881 -0.19980998 16.538126 7627811
-2.6415446 -0.20174988 16.69869 1314569
-2.3166203 -0.20574492 17.029358 11380595
-0.32117486 -0.22344342 18.494247 5657886
1.759806 -0.25341752 20.975183 9079364
1.7713922 -0.2503643 20.722471 9145414
1.8261831 -0.25341752 20.975183 9145414
1.8593717 -0.25341752 20.975183 9145414
2.7903299 -0.25975296 21.499563 8290621
2.8243482 -0.25975296 21.499563 8159034
2.8230779 -0.25654614 21.234137 8092985
2.8566763 -0.25654614 21.234137 7960887
3.0624759 -0.25975296 21.499563 6907943
3.1356902 -0.26304099 21.771709 6645031
3.7119474 -0.26987323 22.33721 4408871
6.0270414 -0.29686055 24.57093 3750678
6.153831 -0.30116287 24.927031 3816470
6.1932726 -0.30116287 24.927031 3751189
6.2327137 -0.30116287 24.927031 3948310
6.2721553 -0.30116287 24.927031 4014102
6.3115969 -0.30116287 24.927031 4079894
6.3510385 -0.30116287 24.927031 4211223
6.4844575 -0.30559173 25.293604 4276760
6.5244789 -0.30559173 25.293604 4276503
6.5645003 -0.30559173 25.293604 4276247
6.6045218 -0.30559173 25.293604 4341527
6.6445432 -0.30559173 25.293604 4407065
6.6845646 -0.30559173 25.293604 4472858
6.724586 -0.30559173 25.293604 4407321
6.7646074 -0.30559173 25.293604 4210966
6.8046288 -0.30559173 25.293604 4210965
6.8446503 -0.30559173 25.293604 4408086
6.9874282 -0.3101528 25.671122 4473879
7.1345325 -0.31485209 26.060078 4605464
7.1757665 -0.31485209 26.060078 4671001
7.217001 -0.31485209 26.060078 4736537
7.1499033 -0.3101528 25.671122 4736280
7.1905222 -0.3101528 25.671122 4736280
7.2311406 -0.3101528 25.671122 4736281
7.2717595 -0.3101528 25.671122 4802075
7.423172 -0.31485209 26.060078 4736539
7.464406 -0.31485209 26.060078 4671002
7.5056405 -0.31485209 26.060078 4605210
7.5468745 -0.31485209 26.060078 4539162
7.4748535 -0.3101528 25.671122 4473626
7.629343 -0.31485209 26.060078 4407834
7.6705775 -0.31485209 26.060078 4276762
7.7118115 -0.31485209 26.060078 4276762
7.753046 -0.31485209 26.060078 4343067
7.7942801 -0.31485209 26.060078 4408603
7.8355141 -0.31485209 26.060078 4342810
7.8767486 -0.31485209 26.060078 4342555
8.0397978 -0.31969598 26.461 4276762
8.207942 -0.32469121 26.874454 4407578
8.1235352 -0.31969598 26.461 4472858
8.2929878 -0.32469121 26.874454 4472858
8.2072725 -0.31969598 26.461 4472858
8.2491407 -0.31969598 26.461 4472601
8.4205561 -0.32469121 26.874454 4406808
8.4630795 -0.32469121 26.874454 4406808
8.5056019 -0.32469121 26.874454 4406808
8.5481243 -0.32469121 26.874454 4407066
8.5906477 -0.32469121 26.874454 4407066
8.6331701 -0.32469121 26.874454 4275993
8.8134022 -0.32984504 27.301033 4275993
8.8566008 -0.32984504 27.301033 4210713
8.8997984 -0.32984504 27.301033 4210713
8.9861937 -0.32984504 27.301033 4276507
9.1750269 -0.33516511 27.741373 4211226
9.2189217 -0.33516511 27.741373 4211226
9.2628155 -0.33516511 27.741373 4277275
9.1589842 -0.32984504 27.301033 4277018
9.6139717 -0.33516511 27.741373 4211480
9.6578665 -0.33516511 27.741373 4145687
-2.9022532 -0.17198837 16.380619 7036703
-2.8763347 -0.17198837 16.380619 7299361
-2.8778238 -0.1736421 16.538126 7562276
-2.851656 -0.1736421 16.538126 7759141
-2.8254881 -0.1736421 16.538126 7824677
-2.5667839 -0.17036584 16.226086 591106
-2.4273133 -0.17704685 16.862402 6312754
-2.3166203 -0.17879979 17.029358 11380595
-0.32466587 -0.19629107 18.695272 5854751
1.7929946 -0.22022901 20.975183 9079364
1.8261831 -0.22022901 20.975183 9079364
1.8593717 -0.22022901 20.975183 9079364
2.7903299 -0.22573474 21.499563 8356415
2.8243482 -0.22573474 21.499563 8093243
2.8230779 -0.2229479 21.234137 7895864
2.8566763 -0.2229479 21.234137 7764021
3.1012414 -0.22859214 21.771709 6579237
